# 3D point list with one line of data per point:
#   POINT3D_ID, X, Y, Z, R, G, B, ERROR, TRACK[] as (IMAGE_ID, POINT2D_IDX)
# Number of points: 313, mean track length: 10.381940385739334
3068 -0.41135300136062131 -2.2708597956241232 8.0248647764974113 207 179 130 1.375781282281106 13 1179 22 1215 78 1144 60 1229 95 1161
6271 3.0162764058572775 -2.2288669408377353 9.0912261045644236 25 6 1 0.29280201374214798 67 360 96 122
9492 2.831198868566752 1.5668077348860716 7.534279333022905 228 226 196 1.1563576637551212 76 923 90 842 44 899 57 775 36 906
3071 2.1769581945130883 0.87638730511164764 7.59800107854175 206 157 68 1.5044161431311012 21 712 61 805 13 713 78 701 19 814 66 697 3 728 42 813 41 731 88 728 33 711 86 700 60 560 69 763 58 485 95 235 32 346 30 578 97 349 51 346 75 696 23 363 73 562 24 375 83 613 5 678 25 704 72 659 18 581 94 461
9477 1.2850485517334853 1.2760530534184513 7.3535635162319863 210 140 34 0.45581906132355732 76 820 44 743 36 739
6274 2.3111038486636795 -3.0164845939946301 9.106961720732885 149 116 37 1.8252321148348414 19 733 96 174
9468 1.2154366453183778 -0.13332404003071829 7.5260694274697109 222 208 118 0.77697603655784986 90 488 44 654 36 636
9478 3.5346673377590379 0.5634617424003342 8.4290431252458404 210 174 71 0.21049585110324848 76 577 44 750
6275 1.2200859280672778 0.48108166238527794 7.4327711128674343 216 134 78 0.23313827719562905 52 156 96 190 40 169
9484 0.39607619979284153 -1.082633680930674 7.4811915802031734 199 181 84 0.38249353410334735 10 810 44 805 36 755
3063 0.18163646653368959 -0.26022837981350511 7.3968946731998342 209 162 48 0.57858469796669609 22 1095 78 1040 69 1099 58 1027 68 1032
9469 2.0908292661333792 -0.2624776280642519 7.6570484307401312 195 131 25 0.38386257102393045 76 531 44 656 36 639
5470 2.0077792144686368 -2.2795823052326969 7.5276235854193843 181 99 26 1.2503636740787136 29 375 72 361 27 6
8673 1.7619561663786243 -1.4965382950104722 7.8510364575585321 211 147 102 0.19772024967101023 56 493 59 485 49 417 35 562
3058 4.0566160759391563 0.096080907260378726 7.6799394271184207 174 115 35 0.54052154532582597 3 951 22 898 78 925 60 1034 69 1017 68 1021
9479 2.1690914515334065 2.310221121381614 7.968262994502159 219 178 68 0.93413798456494701 76 717 44 756 36 748
6276 0.60676187134513693 -1.1852904149709216 7.4135525444450465 203 171 77 0.49723585080118771 52 269 96 277
9480 0.12895471957115137 -2.948660769191028 8.0848446693720266 111 76 40 0.68307621729396439 44 757 36 696
6277 0.60183312625811525 -0.39446374772667347 7.4704146246062857 207 132 80 0.28466500288652197 1 230 96 285 92 267 40 240
4671 1.7652167812865185 0.56190307564963227 7.4465541887476752 224 210 116 1.069953972973797 42 803 19 811 83 727 61 694 8 717 22 734 13 681 70 705 78 808 69 743 58 659 20 598 67 645 47 576 93 490 2 603 1 425 39 408 96 432 18 432 34 246 64 210 84 464 45 251 92 576 94 233 77 213 11 228 7 574
7874 2.1823661220303761 0.6470862287717527 7.5203714428039339 192 160 72 0.79485435996250131 40 1043 7 1001 17 1119 54 1021 26 974 4 989 9 949 55 872 35 758
6278 0.77727442051642059 -2.6842099466478495 7.770057655552459 213 121 56 0.37244611390144172 32 296 96 292 92 218
9497 1.4125756379566272 -1.8561464876871587 7.8356954419175633 185 136 107 0.52034352083759305 34 573 64 569 84 335 94 544 77 350 31 542 11 693 87 580 56 600 53 312 59 579 10 279 44 308 10 32 90 253 36 297 91 448
3076 2.4394934114519695 1.670858383169755 7.1590525554886089 189 101 69 0.84886893219362003 8 864 81 775 28 830 22 893 13 849 70 851 78 851 74 565 99 553 19 576 21 574 61 548 66 585 41 599 15 750 33 728 86 719 60 909 69 905 58 807 95 809 32 686 30 742 97 684 43 702 51 673 75 445 23 696 82 548 73 397 24 683 83 467 38 203 37 75 47 396 16 708
9482 3.1628781561447559 0.093681971714603199 7.4495364613419754 229 187 171 0.16887218526766973 76 812 44 781
6279 0.18118847223449899 -2.5660454220583375 8.1635198368971551 217 193 147 1.8041922187115595 21 67 96 334
9499 1.9624301223108365 -1.1673171503886597 7.7630398663681666 219 168 139 0.4754331858472714 53 528 100 777 10 490 50 350 44 492 76 504 90 453 36 480
3078 2.6674300746454955 1.8316583236551625 7.4809128906718358 170 149 111 1.8387648346983658 86 959 8 989 8 866 22 1017 13 929 70 991 78 922 22 897 60 1102 95 901 95 1024 20 830 20 959 83 885 28 899 16 835
6281 3.3128872144756087 -0.86405341160089166 7.5741978126657568 0 0 0 0.68099437962867326 23 40 41 683
9500 3.6081630198282202 0.48875119559289537 8.3673084090967986 145 123 53 1.6513186423780204 10 873 50 842 93 768 84 823 45 868 77 889 46 751 87 933 53 844 100 968
3079 2.3705444377195022 -0.47172405163222697 7.7505081822991357 182 72 24 1.013627098654889 81 495 22 517 13 701 78 685 42 781 48 781 66 793 3 680 41 694 88 814 15 804 61 664 30 379 51 574 5 769 68 614 63 910 87 848 53 555 10 617 16 780
6282 4.0040970352874252 -2.1225126209034273 9.1461355265039543 78 13 4 0.66803488595224947 75 645 96 368 7 318
6284 2.0245125231588248 -1.07576939430023 7.7367222275159415 207 113 60 0.18482185343162733 6 399 96 428 14 410 40 399 26 376
8683 3.4661324772461461 3.9651973538191196 8.8219659136092439 0 0 0 0.14362044939138741 41 886 64 792
9504 4.6963506112084632 -1.2422854796401197 9.0308116247061783 56 11 3 0.39113338231451855 10 390 36 183
3083 -0.54431687682132979 0.78835586390410628 8.1972668955584584 146 17 3 0.17537437030025785 22 83 78 100 69 89
6286 1.4726645982059334 0.39212244184341188 7.450937344023365 204 163 68 0.30580384127172322 6 95 96 441 14 397
4680 1.241350141920273 -2.8598243036985429 7.7942644467029449 150 63 24 0.3407726620012364 83 321 5 3 47 186
7883 2.8215452326163253 0.99581012670461833 7.6282293700844193 197 165 114 1.3603737821816058 92 552 40 707 7 38 47 76 92 56 26 26 65 601 79 301 98 485
9505 1.8012265410051627 1.2294477520015883 7.348621915179014 215 112 47 0.11823202569200268 44 214 53 227 36 206
3084 -0.50587687929028369 0.85470754773319724 8.2951277792927929 231 227 226 0.24384768714743679 22 114 78 101 60 50
6287 1.4714985412911916 -2.5108031941400055 7.7255461237416005 192 136 52 0.55393559736656095 1 465 2 395 96 455 77 4
7884 1.9160055533502238 -1.5177401528899455 7.7120178075621038 215 180 83 0.61197620714775902 1 439 39 426 96 598 89 628 40 594 7 107 74 101 21 399 66 432 3 414 88 403 15 642 33 626 8 791 28 776 22 688 13 654 70 694 70 822 78 649 60 721 60 878 95 806 20 798 75 377 73 97 5 407 38 119 47 127 93 74 7 708 96 737 17 93 26 549 98 520
9506 1.8803682252839118 1.3044624974161461 7.3549381200129318 227 215 131 3.1908058860596746 50 204 36 208
3085 -0.53144215608265066 0.87533966506778604 8.3853207185383152 231 227 226 0.29996166070618385 22 113 78 102 60 51 69 93
9491 -0.38068406030566321 -1.1990354829867254 7.6441326085070589 179 111 23 1.1614097058740518 10 901 44 892 36 884
6288 0.87513953565060443 0.08227143807746666 7.4739661724149622 195 115 43 0.097014751345583419 38 636 47 284 96 476
7089 2.5251292699391636 0.91469520749660382 7.48074203530064 200 165 83 0.62454417610618773 1 874 39 859 92 800 89 743 40 811 7 689
8686 2.6864032240257303 -0.25297799907554713 7.6836850243485708 205 118 56 0.41855243710377871 54 816 56 717 59 680 35 635 49 610
9498 2.5298684704516208 -0.62869637525941768 7.5905681563981684 198 104 41 0.46783952944482365 10 338 50 115 44 344 3 469 41 471 68 618 25 463 67 407 72 423 27 583 34 590 64 601 84 394 45 453 94 575 46 716 100 637 76 336 90 468 36 324 57 285 71 294 91 302
3077 2.3573453646637499 -1.2871363012304149 7.660918293389023 220 199 61 0.98588898131108738 42 113 99 415 74 419 48 414 19 104 21 402 61 390 66 92 3 431 41 111 33 93 86 404 78 670 28 609 22 717 13 683 8 798 28 771 70 717 81 720 60 752 69 732 69 864 22 859 58 686 58 799 20 686 30 599 97 366 43 588 75 78 23 400 82 429 73 74 24 392 83 63 68 601 37 103 52 117 63 111 6 388 14 389 62 373 16 387
9483 1.6240903369893698 0.4486107118740108 7.4858272543409239 217 199 94 0.73755995145189601 10 835 44 788 36 785
9508 2.2839713855313999 1.7033160509657603 7.2605592879626943 216 87 52 0.0037350019642697161 44 241 36 241
3087 2.7880933703952211 -0.5373097072774119 7.4481514779026607 230 220 146 0.1910489666353587 22 286 78 257 69 271 58 294
9493 1.0694854104392975 -0.064997667334910136 7.4527086596964045 168 80 32 1.1035096204654038 100 1005 76 810 90 742 44 818 87 971 53 876 36 776
6290 0.36672657529075009 -0.8612430736673452 7.4223662283473892 241 237 222 2.0912412499161013 1 515 96 508 79 136 98 167 65 146
4684 0.96176315839770099 -2.3185256012165838 7.8941731733409961 181 74 36 0.28038860141208749 66 29 5 50 29 48 25 39 72 46 93 37 27 37 18 56 34 45 64 334 45 28 94 67 46 13 11 96 59 320 35 126 49 60 57 20 90 19
7887 2.3335631562937 -1.4178576865705177 7.6864737757895005 182 134 57 1.1347659848714287 1 765 89 765 7 547 30 389 52 636 72 591 25 630 93 588 39 623 1 108 96 95 83 62 31 523 11 552 17 634 26 532 4 557 55 517 9 338 35 269
9510 0.93543126439180757 -2.3702445567087294 7.8692599833886492 187 97 61 0.46319677228356876 90 241 36 278 57 255 71 267 91 445
3089 -0.73185101413085929 0.83702830393110861 8.1532497108703748 242 240 240 0.24500069314006404 22 407 78 396 60 375
9495 2.2032568088543734 -0.85370364867088699 7.6987301881755705 187 86 45 0.25212705774615179 53 369 10 105 50 97 44 99 76 78 90 80 36 101
6292 0.22833875785758814 -1.2415911441284508 7.405118462778292 229 183 157 0.053607239525014755 37 519 96 512
9501 1.0876930752968057 -2.7878857854041312 7.6982217966566111 98 33 14 0.093178361055527167 10 247 44 5 36 4
3080 -0.075004407932263192 2.0517583123955636 8.3126776534890645 139 100 35 1.1349941169371929 28 756 22 173 70 618 3 317 88 742 15 725 33 737 78 165 8 568 66 357 69 487 95 355 20 538 30 668 23 761 97 740 72 683 25 736 34 695 77 665 76 609 90 546 57 512 71 617 16 303
9486 0.67651437480278087 -2.9136420037103949 7.8036688850776086 0 0 0 1.2641641335207292 50 824 44 853 36 834
8691 0.25959852288432772 -1.9230231234978485 7.6901943091995824 133 69 13 0.49105838279113884 56 779 59 734 49 677
9512 1.9163363892435394 1.287465947759691 7.2512239923263531 200 105 41 0.43670414560488419 10 403 44 563 36 387
3091 -0.68035941997504468 0.58160671108290452 8.2992281401399257 246 244 244 0.20744523620846217 22 54 78 398 60 381 69 418
6294 -0.0030692852744857932 -1.4205747724075273 7.7366293375421682 175 71 36 1.4407482909726685 6 636 96 524 62 638 4 257
9488 0.99052632450612876 -0.92144044037068729 7.6660992994850305 183 174 115 0.26871292703069249 76 869 44 863 36 872
9515 1.6366832969135303 -1.958211007618321 7.6855361580767445 228 219 176 0.081661819576321779 10 578 44 469 36 453
3094 -0.46645385562609437 0.83890802498326766 8.311305401775174 129 18 5 0.46187516970748133 22 429 78 414 60 405 16 221
6297 2.1997679148983402 -0.6811790293433263 7.5950444040874761 205 102 48 1.0732383405315529 5 438 96 570 40 577
6298 2.1900372969128914 0.120194576156626 7.7919131467097769 191 138 39 0.54527303055539666 24 576 96 571 92 567
9507 2.1157982903611177 1.4896678607405636 7.2346746276879816 232 218 59 0.0072464456399102513 44 229 36 211
3086 0.5048190659687205 0.28442674927466099 7.2042889629342381 203 127 30 0.48262821728459143 22 148 78 134 20 60
9517 2.380836711522234 -0.18021659687838992 7.5434574569976434 112 19 5 0.77576367054031081 44 657 76 532 36 640
3096 0.21741622413043774 0.075020522474296372 7.6546295754747673 208 134 28 0.62031272399681925 22 642 78 627 69 654
9502 2.2245624570338318 -0.90927156682868648 7.7002636132390618 182 81 40 0.027112239066913513 44 98 36 100
6299 1.7653155205052149 0.69543561041192348 7.3996773185018521 223 206 84 0.42551091148081382 1 416 96 592 89 89 40 404 4 116
3098 0.73725495205612768 0.33897737291904484 7.0229372450656227 216 170 48 0.48690929596311117 22 1043 78 995 60 1051 69 1040
6301 3.7166803682238214 -0.011747538671756888 10.969461369507535 215 198 108 3.3108974169271623 29 164 96 602
7103 0.34866626120502731 -1.2337400166679953 7.4459890074151049 189 112 44 1.2503798502208396 39 1066 92 1002 89 1041 7 964 17 1076 31 913 11 944 54 972 26 891 9 894 4 927 55 847 56 821 59 777 35 725 49 681 65 813 12 806
5497 0.35858947212763903 2.3946129017422231 8.0591185395498304 208 178 78 0.51888259461129371 25 1075 29 983 72 952
8700 0.87727533999821095 -0.92010435263001078 7.5616803469260203 207 210 169 0.37727685727915644 56 842 59 800 49 706
3100 -1.4356258622986677 1.0440999112767733 8.353341197964669 127 36 16 0.63256627391919362 22 16 60 3 95 331
6303 1.4543032636244118 0.097404574388649953 7.5665196876520149 174 88 32 0.33806094593271446 1 446 96 616 89 118 40 148
7900 1.1338956561451252 -2.2149827608628323 7.8165263936093696 182 79 33 0.34524940018833111 66 41 3 44 41 44 88 44 15 37 33 52 86 45 8 41 28 86 81 308 22 99 13 114 70 130 60 148 69 100 42 47 99 63 21 71 58 142 20 249 32 249 43 249 23 217 82 266 24 228 5 52 68 45 52 263 67 53 6 270 39 492 2 165 1 481 62 247 34 49 64 34 84 31 94 319 89 508 46 18 31 41 11 368 73 402 75 430 83 366 17 492 54 97 4 152 9 126 55 101 56 72 59 308 76 23 57 24 91 271 16 46
3901 2.1366834744183794 -0.90787340346108369 7.7438427207148761 177 68 29 1.2681429006759857 66 777 41 803 97 566 74 445 8 453 28 433 81 258 22 225 78 479 43 417 51 147 83 399 68 433 47 699 37 586 39 767 2 693 1 769 96 582 14 122 18 645 34 735 64 729 94 699 89 776 40 728 31 785 11 785 87 746 7 824 62 562 54 819 26 793 4 812 56 709 59 667 65 627 80 478 12 580 79 720 98 708 85 273 16 403
7104 3.5593339464101317 -2.1216358803558895 9.0201881225193965 191 158 106 0.78567528270581066 18 898 92 1008 40 1015 10 888
8701 1.8694103401886826 2.0735609617937341 8.2644933524597768 215 189 141 1.4327655225254945 100 1018 59 812 35 775
3101 -1.2981645515947582 0.43674644734705848 8.3650180807940906 130 26 9 0.13246370977160396 22 371 41 195 60 8
6304 1.5707232695722797 1.7856599275405691 8.0578054217155017 151 79 16 1.6974104617179409 73 786 96 620
9513 0.61431935026463858 -2.9331173531311956 7.9516569918692621 95 63 32 1.2356098200073429 44 450 36 433
3092 -0.68035941997504468 0.58160671108290452 8.2992281401399257 246 244 244 0.20744523620846217 22 53 78 399 60 382 69 419
7105 3.0041723723337967 1.0911800558333826 7.6149644357186608 198 167 117 0.027007869292656361 75 1006 92 1012
5499 3.602590794221797 0.22242404648062514 7.7164741917741591 196 184 125 0.46428025299434794 63 1160 83 1028 72 1078
8702 1.5910422297512206 -0.19004063417251338 7.6976241924439153 209 208 162 1.0901599435952516 46 1011 56 860 100 1057 59 816 49 741 76 870 90 804 35 790
9523 3.3768140688725747 -0.0061677980897787976 7.5048895659995178 197 97 49 0.9154042250299258 10 832 44 730 36 727
3102 -0.10371071473621817 -1.170410450159475 7.5827607445320329 204 152 63 0.51717631543808851 48 98 81 468 60 28 20 142 43 287 51 277 82 305 73 285
6305 1.5447454035750947 -2.10364114708059 7.7146236165797877 200 105 44 0.26040233285545683 6 449 96 624 14 627 62 592 92 584 89 649 40 615 7 388 26 399 4 102 9 89 55 70
9524 0.68786979831600648 -2.0932163288639969 8.2439103707800694 129 52 7 0.33346063814219196 44 806 36 763
3103 -0.36183611860382126 0.53088083515507856 8.5896980344128462 118 16 6 0.14264583745395545 22 118 60 54 58 46 95 29
6306 1.5464665487745906 -2.1037407332785283 7.7179266473211241 200 105 44 0.25786597159563618 6 448 96 625 14 628 62 593 92 585 89 648 40 616 7 387 26 398 4 101 9 90 55 71 65 356 12 105 79 367 98 91
6307 1.2336533004066508 -0.27868429856553673 7.624535212649703 194 189 143 0.66973564675676334 39 649 96 636 1 453 92 619 89 645 40 619 7 609
4701 1.6105127588839754 0.37420041711827823 7.4294210776630596 242 240 228 0.40518573807612135 19 275 5 235
7904 1.5561558218139717 0.21058276857862546 7.4908023088717588 194 100 36 1.1199694283442287 64 988 94 926 42 952 99 932 74 1013 99 1009 48 933 19 890 21 1007 61 995 66 906 3 1006 41 1015 88 933 15 978 33 965 86 945 8 1034 81 1013 22 1059 13 1025 70 1033 78 1006 60 1076 69 1060 20 970 32 933 30 943 97 886 43 953 51 928 75 867 23 920 82 916 73 845 24 823 83 818 5 903 68 993 38 720 37 832 52 772 29 500 25 239 63 923 67 635 47 592 96 605 14 885 31 806 56 177 16 941
9526 1.8499643202652953 0.026200506556644548 7.5031566647310983 175 77 11 1.6213675639531628 90 777 100 1044 36 844
3105 0.24190184148161503 -1.4240891396298145 7.484778113776974 203 89 47 0.34466930099054188 13 37 70 392 60 67 95 56
6308 1.126579794775223 -0.35843389829736688 7.4914513631126249 197 187 133 1.2682854444185832 2 484 39 452 96 637 64 630 92 620 94 200
3106 -0.29269498860109328 1.0586457527158517 8.5384196710821545 141 76 67 0.059970391190119016 78 132 60 72 69 119
6309 1.0804469808183303 0.28648950707725629 7.4336214463984298 227 216 133 0.33013851604423133 73 713 96 639 75 727
9503 2.8002514395005438 0.090286522428330365 7.4251434454972882 210 186 31 0.044257575632736794 44 374 36 141
6310 0.92025390847504307 -0.28816355126862758 7.4444812882321321 195 101 34 1.5838033009938521 6 579 96 648 14 434 39 453 62 569 89 470 40 188 11 467 26 176 59 378
4705 -1.0730636560081315 0.7536198631078046 8.9179859820241507 236 232 232 1.6876177362575766 5 291 72 309 25 335 82 278
7908 1.6814451060985713 -1.6756621709565485 7.7314964941070183 201 149 81 0.31459396944998919 73 366 75 130 99 401 19 417 48 67 21 101 66 421 3 92 41 77 88 80 15 398 33 390 86 396 8 404 28 394 81 531 22 453 13 456 70 493 78 436 60 507 69 484 58 454 95 482 20 493 32 459 30 425 97 395 83 370 5 403 68 100 38 564 37 602 29 407 25 429 72 70 93 392 27 65 2 398 18 326 34 74 64 68 46 46 31 356 11 341 67 71 45 69 17 666 4 600 9 583 56 45 35 78 49 45 16 370
3099 -1.4767276863980436 1.0389705004527072 8.3494576423972315 247 246 245 0.91687516581663531 78 40 60 2 95 2
9530 0.28801130250611146 0.21648150751384077 7.8145485856980281 181 106 21 1.0362099553542861 44 896 100 1076 36 900
3109 0.40254511343649352 -0.51093085468638311 7.5045809970789481 208 151 56 0.37951080766093825 13 95 60 93 69 444 95 375
6312 -0.03272643777648869 -1.0441071350357571 7.4556213434953937 220 192 99 0.56049517450428865 52 711 96 686 92 513
9531 3.7806638993481578 -0.20510424930447899 8.0794608193495794 222 190 74 0.21708562441996337 44 905 36 912
3110 0.42137836300523324 -0.47448352779265235 7.5293334726560754 206 153 59 0.021899005692932474 21 241 60 94
9516 2.5757825638270191 -1.5941412760419538 7.554379692139749 151 101 21 0.047039138681473774 44 472 36 456
6313 2.4950397705221889 -0.94704403134823434 7.6267369790789488 205 117 58 0.40731132739193754 1 751 39 754 96 712 92 799 89 758 40 719 7 688 17 783 54 679 26 676 4 560 9 547 55 507 35 428
3111 -0.10807053974103643 2.0373462935218933 8.3025020158513954 210 179 128 0.27804793729797012 22 171 60 106 25 375
6314 1.6308511799003931 1.1363889208326992 7.3663489285834185 197 158 73 0.67435475788057098 72 766 96 734 65 322
8713 -0.58919674585787418 -1.3693312132768605 7.6252969112857052 168 103 26 1.2186646214713066 3 68 88 69 25 177 59 232 53 299 49 168
4710 1.7852761365591532 -0.52099333466997821 7.6851311130438598 209 157 44 0.61269244306474091 41 467 5 461 25 663 72 623
7913 3.0588209442132439 -0.16999913530604643 7.4529509297163878 212 138 77 0.7262847022132547 42 889 99 851 74 870 48 876 61 881 66 800 3 937 41 834 88 828 15 918 33 786 86 794 8 829 28 778 81 833 78 913 69 966 95 833 20 788 5 778 68 878 63 916 84 598 87 851 84 808 77 804 53 761 10 711 50 701 16 792
9535 4.5965096639283525 -1.0823723526542857 9.0101083093745942 60 13 3 0.48924669871458248 74 625 63 818 67 386 63 671 75 8 18 312 94 328 87 772 10 722 36 549 87 643 44 551
3114 1.0411280335497493 -2.4702496805574254 7.7877152411389314 225 182 152 0.21620784038365115 61 30 78 56 60 126 69 53
6317 0.891055432353831 -0.64862219456692449 7.5633963295498052 180 79 32 1.0607403529505908 2 732 39 661 47 840 96 765 92 635 40 464 89 488 17 237
4711 -0.71630988930616823 -1.0132962203912799 7.8366552506742915 183 102 32 0.75537348441718744 30 542 5 467 29 807
7914 3.1110538240166634 -0.43780718966425242 7.589805506422068 195 162 79 0.96744631532843972 74 464 19 179 21 650 66 167 3 498 8 198 20 668 63 498 87 464 33 145 97 523 75 539 83 531 5 441 25 465 67 571 72 417 47 351 93 430 27 114 34 414 64 368 84 419 94 569 46 578 100 150 16 145
4712 0.29604593414320324 0.12799033553761502 7.3524623871251018 209 134 31 1.6506487497316842 41 488 5 499 38 509
7915 2.0750582115195289 1.4157367038252107 7.2577194873298456 215 200 72 1.5971078957320279 42 710 41 743 28 720 99 709 74 709 19 714 61 527 66 567 3 560 42 551 41 742 88 736 15 566 86 551 8 306 81 72 13 265 20 73 30 358 97 342 43 539 51 327 75 459 73 434 38 609 37 414 29 542 25 710 72 665 72 666 47 557 27 655 2 606 34 667 64 666 84 635 92 401 46 235 31 457 11 493 45 301 77 255 29 712 93 663 17 107 54 175 16 520
9537 2.0050759904976219 -2.1395512097158127 7.696078663062373 199 184 111 1.620762641721087 34 1073 64 1049 44 854 36 864 84 1043 45 1057 77 1011 46 1022 90 839 76 907 57 770
3116 0.872340617680609 -0.69714266520515655 7.6072262526551588 210 108 48 0.38971502571092553 61 153 81 189 60 139 58 110 95 127
6319 3.4465703735768174 -1.9023343538979682 9.0701123813929065 197 165 114 1.8385206150801883 2 15 96 815 87 99
4713 1.2167089045779635 0.61757035301868113 7.2135552674600509 217 183 86 0.49237050795213666 19 817 5 517 25 269 67 648
7916 1.6236152038575347 -2.380221499301272 7.7801343060108996 176 132 52 1.3921997581246879 86 847 32 859 82 870 33 602 99 51 81 758 30 648 52 786 37 833 72 691 47 704 41 629 93 699 2 690 6 609 39 899 62 729 96 844 18 612 34 560 84 543 92 822 40 848 89 903 7 714 17 808 9 679 26 801 4 598 55 521
6320 3.4342324790532506 -1.8689475625951923 9.1078040287423452 197 165 114 0.70481521905968003 47 864 96 816
4714 1.8997368234040026 0.77215939034450609 7.4174956306423345 212 138 81 0.3596234019161062 66 540 88 528 5 520 72 249 27 242 18 227
7917 1.5699756828353546 -1.885816929484331 7.7237205929038444 228 215 149 1.2810110642607337 99 740 74 849 66 861 3 888 41 904 88 890 15 876 33 865 28 945 15 952 5 863 38 798 38 870 29 852 2 883 84 670 46 551 77 547 40 929 87 575 7 894 17 912 26 802 4 820 9 788 53 54 53 504 98 717 16 914
9514 1.1530602153895673 -2.7424583474067417 7.7075446704151238 167 133 14 0.050295114828560104 44 452 50 304 36 436
5515 2.3298139046596189 -1.1349489146005927 7.6400660608073023 212 138 75 0.2200085534394508 52 425 47 86 96 417
8718 1.1325497882130728 -2.6508068407233347 7.6904589515115864 175 95 40 0.29853783254842486 59 282 35 64 91 7
6323 0.86912365717090445 -2.1913439328784849 7.8026383173067648 216 165 89 0.17261239740568374 1 824 96 870
5518 2.2699713728759487 1.5437458768663144 7.2179316980650565 224 171 126 0.49505240170178694 37 96 47 113 2 185 7 63 26 49
8721 2.9528782749089366 0.91916397787146031 7.7289225349690343 182 151 29 2.0627348709340625 59 139 35 116 91 186
9542 3.9457748971199877 -1.7651920591429779 8.6241757746705936 160 122 73 0.19452782758248355 44 726 36 724
3121 1.3386046044487385 -2.0934886675089657 7.7267169666579871 221 206 122 0.10949075899883162 78 405 60 173 69 458 68 59
6324 0.66862411961050827 -2.9072831418566114 8.532347044272635 185 124 36 1.2295044210738952 39 947 96 877 14 926
7129 3.4493963528828453 -0.82503472525930621 7.7905267643677387 189 104 18 1.545015475737979 37 18 47 338 92 533
5523 1.9573671410258184 -1.2394735721024492 7.6514533083326812 221 202 61 0.23534263928651863 37 145 73 99 47 128 2 93
8726 2.1584823740431145 1.5247812499092512 7.1905593250336128 175 143 17 0.28752628236973393 59 536 35 344 49 317
9548 3.5879940720588377 -0.4900683865963506 9.2449258679247848 141 41 13 0.1364107584794319 80 106 85 118
3127 1.3875158768480234 -0.018570822110875157 7.6337974417447709 214 124 62 0.27076821700836667 78 190 60 224 69 188 61 207 58 176 95 433
6330 4.5236335252032793 -1.1601727338522381 8.9504919895237123 64 6 1 0.45256296096563053 47 922 96 966 14 934
7927 1.3238514407326347 -1.8463743151204737 7.9351908587532751 171 68 43 0.25499463659302024 92 201 17 181 54 137 26 205 4 162
9539 1.731452462143396 2.2054211178226639 7.428907934636289 212 186 137 3.354708665901978 77 304 36 261
3118 1.1037355714018242 -2.2150570055697965 7.8026986084128938 208 118 67 0.17507475092722685 74 67 60 146 69 74 20 251
4725 -0.78036382238505742 0.94926793580298419 8.2966850869300988 130 19 7 0.094977884171725188 88 847 5 824 41 846
7928 1.4450386664521315 -0.56420114249669573 7.6638920697028805 201 152 53 0.83621832351685565 7 414 17 188 100 803
9540 3.8130443750609735 -1.480344785880652 8.4174212655467748 5 2 0 0.27257699012891412 44 651 36 722
3119 1.3745842535121486 -2.846690539924468 7.75303884843012 199 174 74 0.11617071077879826 8 359 60 159
9525 1.6180997414521037 -2.5528720062273882 7.7149137723966161 149 119 35 0.55689269458370894 44 839 90 800 36 836 57 744 91 743
7132 0.87192035422453473 -2.2857524554124709 8.0292329111870409 199 112 44 0.096626202033226874 45 29 94 66
5526 1.776871360907317 -1.2490307763980919 7.936453340624162 194 115 54 0.44610996505722961 38 148 47 156 27 102 2 419 96 164 64 110 93 96 89 134
8729 1.4542808427077245 -2.2868798938371331 7.7037307008040061 144 86 30 0.61598530552152841 55 754 35 452 49 229
9550 4.0975092121738692 -2.1948140891635743 9.086447935016098 94 20 6 2.7034103343516511 14 88 85 130
3129 1.9729190154266811 -1.5411612317667622 7.6834688664627624 223 206 63 0.89583624959781027 42 92 60 233 69 172 68 118 63 432 72 73 14 604 6 585 62 578 84 61 45 75 77 48 87 382 53 322 100 395 10 295 50 341 44 48 36 58
6332 2.5270359520939598 -0.79981904658227476 7.6026482142463401 212 135 90 0.67227240654294562 39 965 96 983 1 976 40 908 7 877 17 978 54 894 26 848 4 880 9 859 55 815 49 599 59 722 65 788 80 752 12 725 79 706 98 698 85 668 91 626
8731 -0.0033728514298840967 -1.6457352569818162 7.9152563544390917 184 176 111 0.4080983991936491 59 395 35 524
3131 2.2654491751693109 -0.86039857223517036 1.0051442891152571 193 106 38 1.7568340623147505 61 380 60 242
6334 0.59386607039860873 0.58615877556005835 7.6027495714037414 207 130 25 2.4351484713627847 47 1031 96 1051 40 1077 7 1039 26 1016
9553 3.8676648420936335 -2.1615697148519057 9.0464474734895362 171 132 82 0.27974724324267025 12 304 85 328
3132 2.1045460488866778 -1.6917773626445667 7.716880376390014 190 105 47 0.70984442088438138 70 222 60 247 69 173 82 624 66 423 68 121 62 403
9538 1.6784769261587908 -1.8868586972553698 7.7394188990754165 201 97 46 0.73943438389547467 53 786 10 749 36 699 42 973 99 963 74 970 48 955 19 965 21 973 61 955 66 1006 3 1038 41 1054 88 1019 15 1012 33 994 86 969 8 996 28 994 22 1041 13 1013 70 1028 81 1049 78 987 20 1002 32 967 30 1017 97 952 43 974 75 914 23 989 73 892 83 910 5 1008 68 968 69 1038 60 1068 58 975 95 1009 38 920 52 969 29 989 25 1012 67 920 72 956 47 947 93 969 27 947 2 941 6 877 39 983 1 991 96 932 96 1000 14 978 62 886 18 851 34 910 64 888 84 843 63 950 45 898 92 905 92 976 94 900 77 854 89 971 46 880 40 845 31 841 87 887 7 837 17 989 54 905 26 797 26 871 4 819 56 764 100 926 59 719 35 706 49 660 76 785 90 716 57 611 71 625 91 672 16 961
6335 4.6975475240326627 -2.0212632664306818 8.8390288632596992 199 167 117 0.57951672735980486 38 1023 96 1077
9554 1.8971058712840627 1.0992913022667004 7.3402556755443165 200 173 25 0.055162474406304077 80 441 85 395
3133 2.0599631313025282 -0.85912779131194561 7.7159197352872582 198 169 119 0.14269701886181049 61 416 60 250
6336 2.7478738722874261 0.36518161715299308 7.6408602276228983 203 178 87 0.99296926234165017 39 1141 47 1060 96 1082 34 1078 19 1123 88 1181 64 1054 45 1047 92 1063 94 980 77 1003 46 1012 31 964 11 971 31 979 7 1020 54 1017 26 995 4 1016 9 966 55 918 56 859 100 1060 59 825 35 786 49 737 49 754 65 882 76 895 90 831 57 761 71 760
4730 -0.17088513828091548 -0.66822916093387419 7.3967003197871515 214 176 48 0.90709617429116196 74 798 5 889 67 750 25 796 72 736 27 744 18 759 34 755 64 753 84 693 45 752 77 796 46 728 100 801 76 656 90 458 57 432
7933 0.21308878169333323 2.0168925149046339 8.3649644878512621 243 241 238 0.37794333425250404 66 939 17 301
3124 1.0530572702659471 -0.21716066625463576 7.483013733552383 230 220 154 0.24380778115465143 8 155 60 188 58 137 95 125 75 248
9555 1.2246743775251239 0.280087800792166 7.4074374171849664 212 197 102 0.28780417375753814 12 584 85 416
3134 2.3650342444067474 -0.47384309768168414 7.7539124888672113 177 84 35 0.088320149919956875 74 470 60 270
6337 2.1969081532728043 -2.1740993219140412 8.1738621545689778 212 203 128 2.1270295698546269 37 1101 96 1093
9546 1.7250308588646142 -1.7981887894142135 7.7158649606400536 193 112 52 1.0364864244292842 62 420 79 75 85 106
3125 1.0752790997492363 -0.47575894340921621 7.7428263740569401 183 79 27 0.19761471060883534 78 153 60 191
5533 1.5858817229379445 0.56509412802649461 7.3809341492628793 232 221 153 0.41773343788439038 24 126 73 443 75 231 47 216
8736 1.7759219019352297 -2.52260171523409 7.6809204743615602 180 135 42 0.0015185046972917026 59 555 35 540
9549 1.5631457868218859 -2.0915454886215548 7.7386203389335533 186 103 32 0.13707295416405932 80 346 85 119
3128 1.9267084770717349 -0.55805443612912298 3.6080854580139072 197 147 63 0.63499041506257536 99 153 60 225
9559 2.4149753386753123 -0.42017622158635037 7.746742994553915 133 36 13 0.43136390950172304 80 588 85 520 12 674
3138 2.4568973712167823 1.370633416705791 7.330930006308801 203 114 50 0.15460791144515584 61 286 60 301 69 332 58 273
9544 2.5528285268520414 -0.73520336978601375 7.5765773833444872 205 176 27 0.073534278732002051 80 51 85 52
6341 2.1026761434254233 0.00050674078346257811 7.8446433548289072 198 150 44 0.975650823244124 29 673 25 795 72 637 27 620 93 473 2 581 96 588 52 631 47 706 1 620 39 405 18 552 64 431 34 457 84 449 45 496 94 416 77 601 11 181 87 486 26 377
5536 1.0757070525527914 -2.0607901675894369 7.8256720756367502 176 70 34 0.18123850827342686 38 191 47 232
8739 0.97354657542902934 -0.37216892512557603 7.479508081572698 232 221 152 0.18718440005987269 54 856 35 590
6342 0.53559822637461008 -0.62269955352248763 7.4064362871587806 228 219 141 0.46302209339436229 52 247 6 192 39 239 1 225 96 281 47 298 2 294 92 261 40 236
3140 2.8219606527475225 -0.02886591061119359 7.2764418584089912 226 209 89 0.48998869864436756 81 214 60 324 58 548 95 552
6343 1.1649185712342909 -2.6370408120742019 7.7268692896466789 204 122 65 2.0929418188274491 6 823 39 923 1 935 96 761 42 384 99 363 74 379 48 361 19 370 21 363 61 325 66 389 3 16 41 385 88 374 15 367 33 363 86 358 8 366 28 602 81 866 22 414 13 397 70 636 42 385 99 577 74 593 48 368 19 371 21 600 66 610 3 616 41 617 88 614 15 606 33 750 86 741 15 756 8 762 22 809 13 764 78 374 78 749 60 456 60 668 69 411 69 635 58 429 58 628 95 439 95 646 97 742 43 794 51 760 75 581 73 555 83 332 83 533 5 367 5 589 68 344 68 542 38 399 38 560 37 618 29 385 29 602 25 604 63 13 63 14 67 8 67 340 72 359 72 570 47 584 47 586 93 10 93 568 27 2 27 553 2 415 2 573 14 835 62 826 18 15 18 485 34 4 34 559 64 3 64 550 84 313 45 4 45 384 92 591 94 9 94 307 77 332 89 919 46 3 46 312 40 767 31 3 31 519 11 29 11 546 7 736 17 822 26 722 4 734 9 580 55 533 56 17 56 284 100 366 59 284 49 7 35 66 12 499 79 532 98 540 85 465 91 10 16 331 16 727
7940 2.2604559127246286 -1.1117368985141503 7.6461433158979037 202 109 49 0.46563856108987506 40 572 17 428 26 355
5538 1.0579957938000342 -2.1788264801150681 7.9263570723562866 213 114 67 0.2542586124841959 37 265 52 266 47 250 39 231 1 247 96 254 92 227 89 240 40 234 7 194 17 211 26 230 4 445 9 161 55 137 98 192
8741 1.5790794281983855 0.86180298022453916 7.2969390442344633 226 215 132 0.13250184880018945 59 754 35 667
6344 1.5176552891037403 -1.7372591260491399 7.8045377398584117 223 175 138 0.21038166791173296 39 655 1 645 96 449 38 168 37 194 47 173 89 653 98 534
5539 1.0500508637695205 -0.46516148972943838 7.576290222876306 169 74 26 0.139488809743439 52 180 47 253 96 237
8742 1.6405767294236309 -1.8520198922073234 7.8283728234238614 217 197 56 1.5103541478742017 54 904 35 708 49 661 56 768 57 610 71 624 91 678
9563 4.5456622123520214 -1.4391152766733033 8.8795732417109576 41 4 1 0.14890217799636069 12 671 85 611
3142 2.6415132105443488 1.6936588815046463 7.1730922221082398 212 184 135 1.6783319227584725 28 207 60 330 58 702
6345 1.2005508689597524 -2.0000918978111795 7.9990735183467292 156 56 30 0.98815224288476311 29 79 25 74 93 375 39 685 1 483 96 489 73 157 38 190 2 210 64 347 45 403 92 613 77 347 89 672 40 649 7 622 12 346
7942 2.3405964902702134 1.3817512425243184 7.2909878278472631 196 91 37 0.083133491651679714 11 481 17 437
9564 0.1404232539370496 -0.61278077340874204 7.3365874819222947 184 92 13 0.095371800021625874 80 828 85 681
3143 3.2309622594612 -0.19126602836567372 7.4350012794166833 200 105 46 0.38552023782240186 22 324 60 347 58 319 95 318
6346 0.73228621450423403 -2.9965821198940383 8.6164179175693008 214 188 141 1.376039263712765 47 275 39 539 96 517 51 855 23 886 24 869 38 424 73 424 37 778 47 752 92 255
6347 0.1453817056850884 -0.88895898306812204 7.5228151678781732 187 79 32 0.69367088774868013 39 284 1 301 96 520 41 443 28 503 95 52 97 261 5 638 25 501 72 459 47 510 18 413 67 192 89 263 40 295 7 264
4741 2.3481561929459902 -1.0753268661134925 7.6510394535875834 224 177 142 0.94338558992108246 42 153 19 116 5 112 74 141 66 104 99 138 24 394 68 178
7944 1.4601130333634185 -0.59175272425318515 7.6392018667842203 162 75 11 0.68111728480726541 45 459 46 139 17 479
5542 0.72632320287176766 -2.6709013739996288 7.8255258019073004 198 112 59 0.12500510760799832 52 311 47 268 2 199 96 295 92 242
8745 0.87434684171195087 0.90881352799359749 8.1025918974859454 209 145 30 0.58782486856547211 59 828 35 795
9566 2.9120659844403121 -3.5342963762151713 9.1442008543164306 162 121 38 0.76608974497331006 12 829 85 719 14 1010
3145 -0.97752888901448987 0.76935604248937439 8.405029391626142 245 244 244 0.40681075754238977 22 391 78 392 60 369 69 396 58 11 95 8
6348 2.1373001345162685 -0.83540146399111137 7.7522662098445325 206 93 35 1.3014900879178559 52 639 39 626 1 619 96 583 75 113 73 357 24 408 83 400 38 123 38 555 37 426 37 587 47 548 14 123 62 131 89 624 40 586 26 544 9 684
9557 0.73772374293377452 -2.7047209831962267 8.0874955108847626 228 158 93 0.44642326730153165 80 648 85 489
3136 2.2365415707381917 1.9294282561305245 7.4094044835148969 162 53 23 0.38947055465881486 13 276 60 290 69 320 68 525
4743 1.1211823473876723 -0.11142647106322312 7.4505165694279958 203 113 47 2.4595248999152721 42 245 41 172 5 214 8 171 78 160 30 152 3 178 51 151 23 146 82 166 73 450 86 201 13 159 24 165 83 438 5 215 20 132 97 144 43 143 30 416 51 138 23 147 24 164 38 473 38 619 37 221 37 626 52 164 52 472 63 207 72 224 72 474 47 257 93 226 27 215 27 457 39 443 39 650 1 165 14 157 34 227 84 155 94 214 63 237 89 460 46 171 40 166 40 442 31 192 7 437 26 404 16 165
7946 1.9728497070150404 -1.2121480616618348 9.1014338251869393 189 94 15 1.3053879666125565 31 412 17 523 11 418
9558 2.8661721625133318 -0.17146080042080769 7.4841279055981502 116 30 10 0.037064247871491623 80 665 85 506
3137 2.4583787779689246 1.3761989712540195 7.3645273012936405 203 114 50 0.24341384403844762 15 333 60 300 69 331 95 518 20 97
9568 3.2886780222280234 -1.9791797285304913 9.1171754549158237 177 141 90 1.8794972850207934 14 1093 85 771 75 1059 42 1154
3147 0.65942922267421777 -1.7847575768151291 7.8834209395637469 213 162 47 0.96023614136869606 70 399 60 429 32 493 15 60 68 362
6350 1.6886494184341239 1.5765111578497788 7.200605112733383 217 187 85 0.56846919046203204 5 991 29 975 72 945 2 905 96 912 21 964 61 947 15 993 88 1071 33 983 86 958 8 986 28 974 22 1012 81 949 13 971 70 981 78 962 60 1018 69 1005 58 927 95 949 20 953 32 875 30 939 97 880 43 815 51 787 75 937 23 909 82 832 73 908 42 1081 74 1024 99 1021 48 1014 24 814 52 849 6 658 62 666 16 954
3952 1.6064250508844289 1.0766147347221662 7.3970471763332455 208 142 58 0.60718584195448744 13 231 81 78 43 373
7155 2.5514544046904302 -0.41276006541936555 7.623148313427941 198 89 38 0.37096301340521759 18 379 32 114 94 383 91 463
5549 2.8326422334974386 -0.78737861492417904 7.6382672603182042 194 146 50 0.41560472502529466 24 61 47 358 2 357 64 356
8752 2.242876044255393 -1.0841703596873371 7.649595619397223 199 103 45 0.59600131383872068 46 357 59 297 35 290 4 60 9 39 55 297
6356 0.77822365210974032 -0.63518220361149402 7.5045266219304123 225 214 134 0.63105181419420453 39 999 1 1001 96 1016 52 1048 27 901 2 968 92 940 77 871 89 983 40 938 7 903 17 1011 54 852 26 884 4 845 9 821 55 788 100 945
9562 3.0718134183211325 0.35945259698335064 7.7780669042446444 0 0 0 0.032071396014373088 50 630 53 695
6359 2.2332673335824644 1.2837036100013606 7.2993003747208283 183 85 33 1.3588933740214986 23 349 82 366 24 364 37 401 52 44 6 23 96 64 75 440 23 36 82 40 73 413 19 712 24 365 83 463 38 431 37 402 2 438 6 24 62 16 92 101 2 437
9578 0.68519668685322954 -0.69073959275820107 7.4874322716684043 218 205 115 1.0173455357263825 90 459 57 293 71 306 91 478
3157 1.3144588405292608 0.34027568148102666 7.391211518135882 219 154 96 0.061999870642778343 81 436 60 511
6360 1.5348067403151227 -1.8030754791534025 7.7690390169433412 218 197 60 1.2442413092437443 37 190 47 172 2 146 96 177 8 629 28 636 22 671 13 636 70 669 78 631 60 690 69 681 75 575 23 623 73 546 83 551 66 417 41 411 88 397 5 602 52 488 24 170 29 625 67 70 83 369 25 76 72 394 93 62 27 62 39 160 1 456 18 62 34 73 94 334 89 456 11 373 7 389 6 593 62 589 53 503
9569 0.31237797849459326 -1.1239398126676221 7.4249219580415611 206 140 76 0.55420191322805945 65 558 80 514 12 491 79 538 85 462 75 729 24 781 37 784 52 812 47 761 6 713 39 825 1 826 96 782 89 829 40 785 7 764 54 632 4 654 9 631 55 598 4 760 35 385 49 298 98 567
3148 2.49924298301082 1.3404785587024739 7.4730068518673312 202 117 58 0.15892386163667235 61 524 81 99 68 523
5555 1.6661058322036117 -2.1852045730935301 7.7486577633880742 216 193 39 0.33600033375040766 37 444 47 416 2 84 6 601 39 157 1 172 14 625 92 129 89 146
8758 2.9875528913320779 -0.22135435449317681 7.4462823619730854 202 186 90 0.36963699583548387 56 319 49 23
6361 3.2239616932444566 -0.40664178087372216 7.530025311808811 195 174 82 1.1854257281821285 25 1084 72 1018 42 1065 74 1046 48 1044 19 1041 66 1104 41 1148 33 1081 86 1054 8 1086 28 1059 81 1088 22 1130 13 1098 70 1105 78 1029 61 985 60 1147 69 1131 95 1035 58 1016 32 980 30 1047 97 989 43 1000 51 967 23 1015 82 962 73 930 24 1030 68 1064 37 951 52 1010 63 1088 47 926 93 1027 6 901 39 1023 96 968 14 937 62 907 84 961 53 937 50 836 16 1047
9580 1.1585769323225963 -2.8087050625918963 7.7412481105354223 163 130 13 0.46104355269385944 76 472 57 400 71 395 91 250
3159 1.9402218140337568 0.76855140098031094 7.4620900955767722 206 118 62 0.5760443674539879 78 516 60 545 69 558 58 474 95 475 68 242 16 238
9565 0.36753607588585374 -1.2937643534236036 7.4218110578505243 166 92 27 1.2676945534628001 80 829 85 713
6362 1.1184408702511963 -2.4236637388272313 7.7511828788041424 198 94 38 0.78794091456261706 39 225 1 239 96 484 61 340 66 615 3 615 41 624 88 619 15 369 33 601 86 369 33 368 8 372 28 388 81 322 22 413 13 395 70 440 78 384 60 124 69 79 58 146 20 511 32 262 30 473 97 207 43 263 51 761 23 232 23 783 82 285 82 799 24 774 89 208 40 459 17 171 26 196 4 146 98 144 16 345
4756 0.5523546117348942 -1.9699540489797231 7.9869432663495727 168 82 7 0.72382566675939319 32 263 43 510 60 84 68 29
7959 0.75095839752532523 2.4448381359674944 8.2628050880911577 169 106 33 0.5162722455816563 64 791 17 859 31 750
9571 2.1824258526284623 -0.97495139678551879 7.6733881806979953 227 216 136 0.34246272572192782 43 1019 6 976 14 963 62 972 65 836 12 797 79 788 85 671 42 1042 99 1030 74 1037 48 1026 19 1027 21 1031 61 1020 66 1091 3 1111 41 1130 88 1086 15 1084 33 1076 86 1043 8 1065 28 1065 81 1093 22 1112 13 1087 70 1093 78 1056 60 1137 69 1116 58 1054 95 1073 20 1046 32 999 30 1063 97 1003 43 1018 51 983 75 964 23 1029 82 1037 73 941 24 1041 83 982 5 1086 68 1045 38 982 37 1022 52 1070 29 1066 25 1021 63 1071 67 977 72 966 47 993 93 975 27 956 2 990 6 975 39 1034 1 1032 96 988 14 962 62 971 18 858 34 977 64 965 84 909 45 952 92 970 94 908 77 913 89 1020 46 934 40 970 31 898 11 898 87 956 7 928 17 1042 54 953 26 908 4 954 9 916 55 867 56 815 53 867 100 993 59 766 35 732 90 769 12 798 98 809 50 745 44 812 36 810 85 672 57 668 71 715 16 1033
3150 0.78614346095717813 -1.0494836534130283 7.7128976825005822 208 194 149 0.4094667224179756 13 402 60 447
9581 0.9426543011477273 -2.2781763669255461 7.9215112951727669 137 48 23 0.78515313126044406 90 563 57 405 71 525 91 545
3160 2.5909706590802468 -1.8213606195044554 7.7333216191555278 180 119 32 0.26064083641734903 70 256 60 556
6363 3.3270652609691655 -0.091033925359348664 7.4883616087476357 197 114 55 0.17761233080831199 24 6 82 31 14 14
9572 1.216142151034437 -2.6358571717456192 7.7183933570790551 159 123 12 0.1684728250793501 90 8 57 2 71 1
3151 1.2312372228080612 -2.4637606402165533 7.7416549366656744 219 200 57 0.099513316358593298 78 387 60 463 69 81
3961 -0.71324053710329816 0.73665251637129936 8.224208097420048 247 245 245 0.087498726376200042 97 509 43 470
7164 2.6407084712245816 1.8639136280644029 7.402926272948168 163 136 50 1.1568670809888528 27 659 88 601 94 645
8761 -0.29717016624956327 1.8985091275917774 6.7983772651796572 215 182 129 0.2663964783627813 9 257 49 177
6364 2.0512595148652228 0.82299492347576786 7.5396802138302021 188 106 69 0.10551313012095227 82 66 14 60 23 81
9573 0.96624629013119978 -2.3337237933509458 7.9023275124988857 151 54 30 0.28728574315971023 90 20 57 19 91 42
3152 1.319896723554056 -2.5483228088669838 7.6123037558636097 220 199 55 0.3170715907086788 22 108 60 464
5564 0.48051449768820326 -1.2697963325744075 7.4894679362103176 210 187 55 0.59183229170069307 25 136 72 145 47 492 93 117 2 505
8767 0.85710139971583776 -0.53284402600487712 7.4338047625928931 166 167 105 0.18786919665073468 35 373 49 305 71 87
6370 3.411583863869625 -2.4947927274365065 9.1504104613781454 204 174 124 0.30013971980664611 47 47 14 133
4764 3.0440070478940346 -1.2717602133515218 7.6153071791335387 179 86 23 0.19523264201647478 60 328 68 201
7967 0.1125391827251882 0.085778032747576824 7.936420769339934 204 120 26 1.0783529679295729 64 936 17 1023 26 756
9594 2.8307089774686172 0.45628456746335389 7.5485899399777043 201 163 48 0.92763483850867545 76 850 57 682 71 687 91 727
3173 1.9330788321627381 -0.5135703845446985 7.7085072135580672 212 149 33 0.51721395687401017 8 677 60 730 69 730 28 799 82 762
6376 1.2598724474504488 -1.9436543663259704 7.8580278575706952 216 147 101 0.15634030129651227 6 234 14 229 62 223
9579 2.3130470418054392 1.2699172356585207 7.2917335327836428 176 178 124 1.1460266175424436 90 628 57 348 71 161
8783 1.933317104023023 1.1769592762259837 7.2281117885251884 224 213 127 0.8407848103583998 59 807 49 710 91 735 71 692
9589 0.68896269240513075 -0.84294723435924823 7.5249446008207608 143 67 32 0.5390916980808963 90 671 57 541 44 768 36 762
6386 2.1039615863675385 0.92169687156115854 7.4734911149504351 195 104 55 0.12879066033518805 6 52 37 133 14 359 62 46
4780 3.4625860411912202 0.65407124867737598 8.1436034876497523 216 192 147 0.73814735614468518 20 192 68 529
7983 2.1678777709216104 -0.6650012544271634 7.6972546776215101 160 45 14 1.3960185019409042 27 961 34 923 92 898 94 914 17 986 1 892 96 911 39 876 89 878 55 748
6377 0.6499371219372041 -1.0653382385339676 7.4461004409687028 225 208 77 0.075488697270441343 6 202 14 232 62 192
3184 1.8330496927021287 -1.4157650862637929 7.6310282968387249 241 237 220 0.23130191905866285 78 789 60 877 58 786 95 791
6387 2.5025322293718455 -0.4238405545645707 7.6667080969555359 207 102 46 0.33616077242032683 61 183 14 367
9596 2.4484901662775833 1.0861596760805792 7.4455091443875663 185 180 109 1.135672523453114 76 896 90 812 57 730
3175 2.4062106512305208 -0.81120373553496616 7.6287460339454833 232 222 166 0.18189304411097432 22 731 60 765
6378 1.1639689761196541 -2.5132245714552033 7.7313711994503214 227 174 131 0.37234907835715431 96 220 14 243 17 146 4 128
7188 1.2068920353939552 -2.2803547174245198 7.7519925308791997 194 97 38 0.73295334491321851 84 20 45 17 94 50 29 33 25 42 67 39 19 48 47 197 52 237 93 364 27 355 96 224 92 168 17 149
5582 1.717089001783962 1.0897793659141755 7.338443080823212 238 234 214 0.49473338786472226 38 728 47 720 62 52 18 691 94 640 34 274 46 475 11 499
8785 1.4082321212998623 -1.7645181356752515 7.8133741485683963 196 92 65 1.2626404074478699 56 867 49 751 91 776
6388 2.4977915486738738 -0.87188797609468027 7.7108334426982186 210 122 55 0.01592113574051806 52 90 14 382
6379 1.0284955795193282 -2.775971845507414 7.6789696143748039 227 184 139 0.14826549323852414 96 249 14 259 40 221
9582 2.1238183855606407 -1.7001003115500246 7.7064786495845921 176 154 78 0.49652889721640464 90 568 57 411 71 529
3162 2.3973035910208966 1.5937513240898116 7.1835466325704189 226 184 148 0.21943270598261577 81 394 60 577 69 596 58 516 95 500
9583 2.3618714980543585 -1.4218304637207084 7.7304960591080416 140 114 37 0.86482470552770474 76 493 57 424 71 408
4784 0.91320742051444848 -0.80282604060844509 7.6854132346343835 190 176 124 1.2058940356019916 58 614 70 801 68 573
7987 1.3217690560687236 -1.8216747449304671 7.9540961207926255 166 58 33 0.58756440093483553 93 973 27 951 2 996 1 1094 18 857 34 973 64 964 84 902 45 942 94 906 77 858 11 906 7 950 17 1001 46 798 31 775 11 855 54 838 4 837 56 616
3988 0.1965528479493738 1.4933297367348546 8.514024583454626 202 152 51 0.94799480988976315 30 902 43 850 51 809 62 705
7191 3.0812072322960886 0.36633145170783532 7.7746886353740399 165 67 32 0.70679898041726508 42 294 41 259 25 208 67 219 72 213 93 635 27 448 18 540 94 588 34 628 84 725 45 777
8788 4.3382375294830888 0.34755743835978486 7.7594471085914449 0 0 0 1.7135541485130765 35 778 55 932 49 767
4785 1.11712276672924 0.42138936114819658 7.4007198961602523 204 167 89 0.065291779011476175 60 694 68 603
7988 1.7232153804749113 -2.0422671568405617 7.717109026708858 187 175 95 1.3653969479527914 94 54 17 90 37 735 63 609 1 790 39 645 96 611 47 417 2 386 18 42 18 316 84 326 45 39 92 128 40 425 4 83
6382 0.26617254059251683 -1.0535697737443503 7.3964357314164557 209 144 80 0.35673479038624151 6 221 14 266 62 212
9610 0.44288705057358607 -0.66073997390766981 7.4591248732022484 229 219 143 1.134907502874527 76 838 90 770 21 1000 60 1118 58 1032 68 962 53 862 23 938 82 936 24 943 42 1054 99 1037 74 1048 48 975 19 1045 21 999 61 1026 66 1031 3 1050 41 1129 88 1088 15 1081 8 1062 28 1073 81 1082 22 1096 13 1065 70 1071 78 1041 60 1117 69 1100 20 1033 32 957 30 1086 97 970 43 1037 51 999 75 945 23 995 82 1008 73 966 83 998 5 1029 68 961 38 1001 37 930 52 991 29 1016 25 1092 63 1019 67 988 72 983 47 979 93 1036 27 974 2 978 39 1002 1 1009 96 957 14 986 18 917 64 1022 84 910 45 958 92 951 94 956 77 919 89 987 46 944 40 946 11 912 87 959 7 915 26 893 4 923 53 861 100 999 35 685 10 755 50 737 44 810 36 808 16 979
3189 -0.54241760317876864 0.38884742064599814 8.2111476174665956 134 18 6 0.5288875478111793 78 864 60 922 69 809
9595 0.56170604524248335 1.3192080714944057 6.2315366207585017 172 86 36 0.29360534457689158 49 331 57 720
6392 1.4613286324513968 0.058031285514288919 7.6614915932051 168 78 27 0.1516254347626915 6 385 37 199 14 412
6383 -0.20573505313304788 -1.4514432700094857 8.5004111706483325 187 114 32 0.3166338101708866 6 515 14 310 62 290
3165 3.7641131742160834 0.43887564214557151 7.7730780261673855 192 110 23 0.71790314482490569 21 493 22 588 60 611 58 566
9586 0.80635334834327899 1.498751648621141 8.4166329614536615 179 123 43 2.3468817761160237 49 486 90 401 57 499
9611 1.090894505388299 -2.2512720952842793 7.8333528833755697 191 86 37 0.45374039095369612 65 406 80 173 32 492 43 488 51 272 75 429 23 482 82 284 73 403 24 248 74 66 19 46 21 70 61 45 66 34 3 43 41 34 88 33 33 49 86 374 8 37 81 311 22 98 70 129 60 147 69 73 95 170 20 252 83 97 68 44 38 419 52 264 29 51 67 52 72 35 47 461 2 425 96 253 14 249 34 46 64 33 31 37 11 98 54 122 26 599 4 150 9 413 55 135 56 71 59 69 35 106 49 265 98 551 16 43
3190 -0.54657662920061378 0.39173308463217527 8.2136378089272117 134 18 6 0.18664389181024399 78 865 60 923 95 849
