# 3D point list with one line of data per point:
#   POINT3D_ID, X, Y, Z, R, G, B, ERROR, TRACK[] as (IMAGE_ID, POINT2D_IDX)
# Number of points: 223, mean track length: 13.466911457898689
11468 1.7641214666370484 -2.4384376294475287 6.5630884946473138 190 171 85 0.12951735389232261 85 9 32 310
11463 -1.1987609966814545 -0.30899785097829247 9.6289765911755527 127 21 6 0.57089827115595759 15 300 32 288
11459 1.4565780251915772 0.59772990478588728 6.2740997515227237 212 196 100 0.39895154516355663 55 233 32 217 84 137
11458 0.87025889301793002 -0.049153119922102674 6.3907077812682687 219 145 89 0.1160776305333191 55 632 32 207
11455 2.1329608779372937 0.41265520240736353 6.4429691129472904 202 134 29 0.44799955726903901 119 211 32 192 199 635 7 213 44 497 142 378
11453 2.1984357704240085 -0.17791371831596298 6.5471703431548622 198 97 47 0.057764237212275818 126 162 32 151
11438 2.0517951058982873 -0.60611555046047461 6.564354702112186 205 116 64 1.6127948348466332 71 1194 92 1034 8 1056 179 1010 84 1142 32 1022 100 1097 195 1045 107 969 196 1049 174 1009 112 1045 160 1028 56 969 6 1051 55 1010 165 1025 159 923 51 913 52 940 13 931 116 873 48 908 198 879 65 906 106 972 21 859 90 911 44 1029 136 849 50 934 73 909 129 870 16 1063 101 856
11433 0.68353277031260073 -1.4364956908679407 6.4227202601774716 137 118 28 1.3067948648630063 92 728 55 712 85 744 110 879 8 588 38 772 147 648 32 691 156 791 100 638 199 704 44 754 106 686 7 654 132 704 41 616 124 614
11422 1.6782510295975765 0.15719182451119357 6.4689270250030262 226 201 121 0.87392782572927818 92 816 55 800 84 902 1 806 45 763 156 772 100 749 107 767 196 608 174 606 112 699 93 718 56 658 65 639
11419 0.49850538316212867 -1.4061440534844112 6.3764145560095793 226 215 132 1.811170039599391 75 811 55 719 107 608 56 448
11408 1.6884438525781795 -0.097769812979479259 6.592606853815262 183 96 13 0.046099152949912896 28 704 55 592
11406 1.5640900706452696 -1.5165307744270702 6.7746000908619415 191 112 46 1.024447719458103 72 406 55 580 32 362 107 557 93 609 111 101
11399 0.43220078926004951 1.8742543353201155 7.2600785555383842 206 178 130 0.065785750700640203 78 294 55 505
11397 1.2214979082898092 0.94418555172418162 6.2749772934908181 215 189 85 0.23273517600831087 92 307 55 498
11390 1.380332515942198 -2.5137782990557422 6.5732004030447095 221 168 133 0.48737735965367107 16 366 55 324 159 307 51 308 116 33 48 71 106 9 121 10 199 4 44 10 7 10 132 10 124 5 193 16 33 11 162 5 186 12 142 6 40 9
11388 1.3947550908923581 -2.864646908956733 6.5493344916587537 103 43 17 0.58556720544381269 16 545 55 315
11382 2.6642392156530046 0.5334318301885238 6.3879489992196579 201 169 118 3.6179753974254161 189 290 55 129
11381 1.9891154547504692 -0.86706285830980123 6.5817404745052803 204 107 61 0.26305573722799436 92 121 55 110 196 79 174 83 51 91 13 106 116 85 198 100
11380 1.9840813445940113 -0.88394191454710624 6.5295467691230256 194 80 40 0.1234940122333657 16 149 55 106 106 101
11375 2.4722467141577469 -1.5272875235964667 6.4706169472425188 185 99 17 0.082142341535202779 179 16 55 13
11364 0.46003202263158177 -1.897419557087523 6.6216031833015112 166 125 85 1.2195127216872474 58 524 109 480 184 472 157 806 166 692 79 29 62 457 53 269 183 286
11360 1.5369918582292275 1.3924132695745888 6.233690553679045 104 35 19 0.47409575957598449 78 524 140 288 166 508 2 331 158 281 89 318 184 263 181 243 132 262 199 288 41 231 36 222
11358 2.454236721763126 0.27187863561444536 6.5976355207300816 147 54 25 1.1845046705405484 60 514 57 609 140 612 58 631 184 570 172 178 85 169 29 478 16 192 98 235 102 252 89 484 2 653 110 825 78 649 179 192 126 440 8 397 22 499 38 829 158 451 157 280 6 760 43 799 147 694 119 724 79 666 62 417 53 520 36 388 76 510 187 732 105 554 135 246 144 714 24 684 82 732 164 250 31 291
11356 -0.85259894153558746 -0.80198614027707393 7.3412368668960184 89 8 1 1.50000494897721 22 173 157 417 57 343 109 348 184 98 154 737 153 697 155 795 11 803 5 909 30 821 143 521 185 303 98 265 85 299 89 750 22 440 60 724 158 531 6 493 43 189 57 503 119 203 35 489 109 499 13 240 127 929 105 815 39 882 144 820 144 518 149 857 24 918 82 797 178 805 178 187 87 877 115 785 167 736 170 755
11355 1.5133965777878975 -2.5386902541696483 6.579147059301512 153 137 41 1.6626129631252771 2 15 89 20 22 14 17 11 49 12 43 5 147 7 57 23 184 16 102 16 200 27 89 17 17 8 49 10 157 361 187 637 194 539 150 612 63 576 171 722 180 566 113 723 154 579 187 636 161 682 189 675 163 734 11 621 188 597 108 592 153 566 60 358 158 306 166 309 109 334 79 294 62 267 53 260 181 17 90 275 36 9 73 11 76 629 103 369 9 600 34 559 194 699 127 633 117 602 20 563 20 567 94 599 178 22 87 30 115 20 167 360 170 22 118 25 173 21
11352 2.7314212922499546 -0.99694153243197958 6.448589446369251 185 108 18 0.60359909377520715 57 1030 184 984 181 953 87 1139 117 1136
11351 1.7050705762349165 -1.6573232982353263 6.5124613986759501 207 191 95 0.55899130644979578 166 975 184 921 53 846 181 890 36 754
11350 0.3321595186522272 0.60255884893061529 7.3176260781486544 208 179 130 1.0224518126030924 157 1059 184 907 131 1138 87 1115 115 1136 167 1071
11348 1.644485455743512 -3.1317588852102025 6.8564966798655682 1 1 0 1.3761435342422133 156 361 181 577 85 0 160 84 114 0 165 415 115 357 170 331
11345 5.0870051357075861 -2.5191006176960751 23.419166712393807 213 187 139 0.63614804273314407 46 869 184 603
11338 0.48545849968141486 -2.1108717351362296 6.6446293409793196 165 119 32 0.46999827525625743 140 512 184 465 79 485
11337 0.97116600764615424 3.2582821341359356 7.4196148818661198 0 0 0 0.017134296843717221 43 299 184 462
11335 2.8676497804498577 0.44381975472477658 7.4184974724295021 209 156 54 1.0710571298149265 140 484 184 454
11332 1.6420200103665616 0.59503524034732036 6.5834608579578831 203 146 50 2.2359629623248924 114 729 184 424 73 401
11330 -0.85782712218028223 -0.81191516359994831 7.3410088666995739 82 19 7 0.40238374275079503 147 168 184 338 181 323
11327 0.97459528646748994 -2.3717389428863225 6.6125051060965658 168 122 43 0.18487917486972327 57 481 184 292
11322 3.4140913960001988 0.25650202565713037 6.7776602884189119 213 187 137 0.02658491714511706 140 261 184 268
11319 1.3409787915795377 1.1120767976409744 6.2196768787090466 230 220 140 0.44464200403118243 60 530 184 236 181 212
11317 1.6690191474059295 0.79369850872757142 6.4851458696573969 213 137 80 0.13179920630077679 140 258 184 233
11316 1.413297557390909 0.67411187649460513 6.2398970613564071 228 218 133 0.040817812536328088 157 264 184 206
11311 -0.92971077417478187 0.3283877186985687 7.2380325001782664 110 20 6 0.47721800570594913 89 261 184 148 159 264 178 289
11310 0.91631466306063525 0.09054147866505971 6.329264505259097 212 187 31 0.20469811071232183 57 148 184 145
11302 0.54008106898209873 -0.96778459908962167 6.3567041866647891 210 186 31 0.13750755268299242 35 60 184 78 109 346 181 56
11300 0.40738422167279587 -1.032053812111813 6.3825909065206767 217 200 103 0.023014731818051824 35 53 184 66
11297 0.61011136804196398 -2.2383179595396623 6.6099452840144881 5 3 1 0.49372031610605466 2 29 166 20 184 12
11293 1.6536341000717714 1.4142264975729495 6.2770194885945303 102 21 11 1.105490725922905 37 710 66 677 91 780 125 740 92 904 192 922 61 1001 143 952 168 978 172 953 107 674 76 970 20 823 137 979 144 1010 149 974 99 1037 67 983
11290 1.3611961190713946 -2.4795332883851828 6.5961354267687842 202 100 40 0.46073541213863456 61 364 28 420 185 387 168 377 98 392 172 371 88 367 16 48 85 373 179 349 126 341 8 337 92 108 91 143 125 470 97 468 55 41 32 17 45 183 107 131
11289 0.64398356272768031 -0.2830111700918545 6.3135430099041958 131 113 47 1.3660157211365895 66 721 97 735 185 787 168 771 92 648 45 196
11288 2.3512154746804654 0.035601111606461955 6.3670867027279607 152 142 84 1.0879487119602038 92 107 37 50 66 42 72 236 89 457 99 213 141 268 164 237 118 250
11285 1.2808001404127412 0.85437218808550475 6.2422053779631392 197 92 34 0.35861001548441901 16 512 179 476 92 294 177 218 64 130 104 57 27 62 190 115 84 177 156 178 112 109 76 309
11283 2.1682023771192243 0.78865354191658232 6.6088479864727105 195 126 13 1.2723106879284554 185 659 98 696 88 806 85 632 72 820 110 907 29 501 102 785 89 779 2 793 78 881 179 575 8 602 92 436 91 125 156 387 107 91 196 153 31 328 31 815
11279 1.186627134759064 1.283802265010352 7.1836423282873829 203 128 29 2.6225657937831279 92 1049 55 1020 1 1052 107 981
11275 1.5355005132736286 0.8167243956460265 6.1363003713635189 207 111 54 1.1662606434322607 179 956 92 982
11274 1.5946135999511613 0.86741883058083447 6.276666090070548 207 111 54 1.135158306569267 92 981 174 925 13 875 198 798 21 776 193 693 33 709 162 763 142 703
11267 3.0188572433080747 -0.25604619418237412 6.3688372714594763 180 128 28 0.018225981478381486 147 838 92 773
11264 1.3689656281412019 -0.95637586685306375 6.6905659323694628 207 150 45 0.54434926020679908 8 701 92 722 107 676
11262 0.87962206735766835 1.3472352115590509 6.1977039424443632 186 124 29 0.21689383705947837 119 645 92 655
11259 0.70965454792077831 -1.5574595159724056 6.4939891313748372 214 219 202 0.84609173282471528 8 585 92 618 55 420 196 429 116 370
11254 1.6379471345280612 -2.4052250787426375 6.5810380022894144 161 59 20 1.7175798704053484 64 621 66 434 179 31 92 377 1 416 84 407 93 144 122 170 152 161
11250 4.5533646638703713 -0.17800493964125522 8.4114860958323003 183 95 19 0.52092551370902518 71 51 92 342
11249 1.680552399795944 3.5275162293897502 12.138310300461818 0 0 0 1.9114926098053522 6 329 35 595
11248 -1.0620888687936128 0.67717310898383398 7.7016280381437285 209 182 134 2.1446599263989681 38 351 92 336
11241 1.1104567811847299 -0.31840101626365785 6.3803534098340897 189 172 98 0.87850128644664216 126 611 92 226
11240 1.5736534193906504 -0.17298782442973698 6.4698202332713954 217 145 36 1.3828483133190612 97 410 92 203
11235 1.660706892662666 -1.6323331936812395 6.6117186684231601 212 145 83 0.70340540378095417 37 186 92 124 156 79 100 82 195 78 196 86 112 76 51 63
11224 -0.97874662316151129 -0.63863567801597632 7.1670436517604639 144 19 3 0.075657634901580409 46 1095 71 1108
11214 0.98845641369611148 0.97055607175025405 6.2763129879400443 190 146 40 2.5221327252214523 196 1051 174 1010 112 1046 160 1030 159 928 51 920 116 888 198 889 165 1017 21 868 136 863 65 910 151 745 120 701 47 727 4 748
11212 0.35914447968619606 -2.2682355251452662 6.8578051378259337 211 140 35 0.57060681757489007 46 1143 71 1163 191 1039
11209 1.174021135293305 -2.9760283097060163 7.3526821294080751 180 117 29 0.96881840980989942 46 1089 71 1134 1 974 70 1063 191 1014 83 944 50 929 165 979
11206 -0.50921576189340867 -1.7616042362739779 6.8889031217662353 213 157 66 2.2574016739105565 126 995 71 1109 12 879 191 939 96 918 18 933 122 901
11202 0.18201080689420529 -0.37186938745441633 7.132801341073165 203 115 20 0.0642063641046626 70 989 111 570
11199 0.73262594445057627 -0.0043817783838132297 6.3517530438322947 212 178 69 1.9434656327472191 46 1063 71 1076 175 986 1 988 45 1020 195 966 196 977 112 964 191 970 56 863
11196 2.2370133568618713 0.31053911063277023 6.4018559954778844 178 142 35 0.8706836706361486 46 1043 71 1057 1 935 93 870 191 944
11192 0.87718387845134782 -2.168190943858173 6.8388688204023778 209 173 67 0.4037724205238275 70 986 71 1037 1 920
11190 -0.075366915275257004 1.6910906268299508 7.1032754092559749 150 113 39 1.3998424310432007 3 795 71 1030 156 1034 195 928 196 983 174 905 174 949 112 863 160 870 165 910 65 835 136 731 47 654 151 684 120 652 25 624
11188 1.9073931853783594 -1.9664865315397526 6.5850943535982083 177 150 74 0.43009722212678997 70 950 71 1017 1 891 107 816 191 905 13 612 52 619 83 852 21 572 25 339
11185 1.6508172508945749 -0.56831601442202329 6.4124387834796464 198 132 29 1.4504519176127664 147 752 71 1008
11184 1.6281423567635283 0.82068808790554781 6.3131356655329363 137 61 27 0.98520156356992017 46 987 71 1000 45 850 84 903 18 898 122 797 134 800
11182 1.1787159656500554 -2.9639556778001435 7.0624553946658146 186 162 81 1.3866677026230074 46 968 71 980 191 935 83 920
11176 1.1981281736269813 1.2301765986938735 6.2987424190231485 171 113 28 1.0509940657112222 46 891 71 910 191 805
11174 -1.4200357623746638 -0.40056856251984235 7.3877131723853076 115 22 10 0.83011432265732932 46 867 71 893 96 763 122 617
11165 0.86995946939659363 0.67443588539765809 6.165767059412147 173 131 44 0.53394553829048552 46 785 71 805 96 678 122 636
11164 1.117899840898581 1.0116255501024753 6.161690491363963 180 148 49 0.88116862556279296 70 851 71 789 1 814 45 861 112 834 93 817 191 688 56 779 165 696 83 653 65 655 160 719 50 503 148 600
11160 0.28249362203160472 -1.7166747933836481 6.4240144480888821 205 88 54 0.20314221591027157 46 727 71 732 12 430 96 625 18 581 122 587 86 454 134 562
11157 1.3989850688041408 0.10717877462768223 6.5119955049475653 183 167 95 0.89300281126458059 46 438 71 643 191 392
11148 -2.2066657455641976 1.5091199540833964 9.4123778700457006 197 167 116 2.2229462559445299 8 774 71 595
11147 -0.62940462260293895 0.25939217233830403 7.3158972016862345 100 11 2 0.96506930298201321 145 197 71 576
11145 1.0121111597937209 -2.8299899402757269 6.7844792209942639 214 131 76 0.30204892341503836 46 317 71 565 1 471
11137 1.3428697862990533 -2.3252131784566079 6.6103244965027965 205 116 54 0.27931953404884663 46 514 71 515 12 424 96 201 18 409 122 193 86 210 134 199 152 171 81 173 14 155 176 185 111 123 74 134
11136 1.5493782585772977 -1.8729256910000538 6.6224720482949913 192 87 41 0.18376570628339942 46 484 71 498 96 157 134 158 50 111
11135 1.6563126243054065 -1.5074469449381116 6.6640532515666173 182 93 50 0.38420108530293245 46 468 71 486 12 143 191 430 1 571 96 140 18 140 122 127 86 390 134 140 83 383 14 98 111 86 128 102
11134 1.8371704255815606 -1.8518072161376089 6.562703196657198 219 206 117 1.2301646439312224 8 544 71 483 32 519 107 78 122 385 18 369 134 368 56 64 83 110 83 375 14 95
11133 1.6894194036766308 -1.1534361677093021 6.6428912622673648 191 139 73 1.093469288236314 46 666 70 621 71 478 191 595 96 702 122 543 134 745 18 770 83 373 152 700 81 700 176 642
11128 2.0404171683744967 -0.60230260449514672 6.5592977602406304 205 104 44 0.37765124953759455 46 91 71 441 191 375 18 76 83 338 50 313 128 62 129 502
11127 1.2258787628140699 0.81453714486940487 6.300417125686991 177 65 24 0.41192653607412372 46 412 71 433 12 39 191 367 1 391 96 40 18 37 122 44 83 53
11112 -0.31588620316765786 -1.2129392250590205 7.044217813235166 216 191 144 0.87009677148907039 89 137 71 349
11111 -0.60589883314551629 -0.49685308436372883 7.1967134966167716 115 12 2 1.9996163972609533 2 212 71 348 112 273
11110 0.14121607817395124 -1.5663518677538379 6.4341808319964215 231 192 157 0.39341842372233965 46 309 71 315 1 294 45 271 191 285 56 248
11109 1.0351368201869047 -2.7250840315404163 6.7654342284394993 219 161 108 0.27790314080919032 46 311 71 314 45 242 191 281 18 251 122 264 165 189 83 248 65 162 50 213 128 212 197 194 148 206 19 174
11108 1.0926554464894875 -2.8510074331941024 6.6366529016332159 212 115 67 0.072093254467862286 46 305 71 309
11106 0.33776661201725749 -1.6804988879505871 6.3545817019485051 208 129 100 0.0019405877843693639 46 295 71 296
11105 1.1271406471878997 -2.7650858162002931 6.6301074577757717 220 158 117 0.53790387710262 46 300 71 293 191 268 96 263 83 233 81 401 14 226 50 187 176 447 111 180 128 187 74 376
11100 1.2440246982192316 -2.2361274874375292 6.7792889228175479 168 56 26 0.30126558952737287 46 248 71 263 84 468 1 449 45 478 156 419 100 409 195 393 196 143 174 145 112 426 93 463 160 412 122 219 56 402 165 440 159 77 83 207 50 178 129 178
11096 1.2768583977760999 -2.4051372966614708 6.6101612192664483 204 105 56 0.080443564611180962 46 241 71 254
11095 -0.41541479638599166 1.6339628126496797 7.1435226708216621 202 170 118 0.56902408421936601 177 580 71 253 117 574 11 75 94 223 69 332 87 551 170 322
11092 1.3807501771495938 -2.5147713643604357 6.4759328002836689 232 220 171 0.69461999662151708 46 509 71 239 1 189 45 163
11085 1.918395321442681 -2.352266030319548 6.3346092419118092 177 117 32 1.3821669528877767 28 408 46 159 71 164
11084 1.8138351971049587 -1.4992731620062827 6.506447970679397 220 207 118 0.20827606838468871 46 136 71 138 191 129 86 126
11083 1.8391771568366688 -1.1865283640952 6.5167331988248209 185 72 27 0.16699264537367947 46 122 71 131
11081 1.7558075546664333 -0.065403541005101609 6.7334684288776439 148 76 10 0.30628496826906815 179 206 71 114
11077 2.1618302632600073 -0.9183112763326623 6.4688387743807594 199 107 40 0.37169286115328376 46 421 71 93 12 351 175 383 191 372 18 79 86 76 83 62
11072 2.8721049662027509 -0.76782577363980198 6.4601938061054316 172 87 16 0.19564842311301361 126 64 71 24
11069 0.5905880710236695 -1.7023610390316177 6.6539193037811319 181 169 141 0.39753714802717272 57 494 109 489 181 40
11068 1.8523602349364245 1.343685139911458 6.3759503352354168 191 92 42 3.4786692563687174 72 325 109 464
11067 2.2565190177183836 0.83747148737506827 6.7687886441779854 212 122 21 0.051557480688169094 57 273 109 463
11064 -0.45031479110514766 -1.800219244791327 6.5873004999766804 29 11 3 1.2539595507622745 163 390 11 335 182 299 110 148 158 20 147 40 7 69 132 64
11063 1.5691448311039213 0.79047896955368757 6.306017175016871 235 215 204 1.1879476547586347 60 295 157 290 158 224 35 425 109 435 23 32 63 144 75 44 171 57 59 36 104 48 42 60 95 53 27 100 180 290 188 241 187 271 10 75 113 203 190 80 80 173 189 171 163 180 133 265 192 251 61 291 114 262 30 234 143 250 185 262 168 242 98 302 172 244 16 286 29 510 72 699 110 550 154 274 200 539 150 278 153 485 102 290 89 508 2 515 78 666 126 246 22 518 60 674 17 697 49 697 157 665 158 608 6 262 43 474 147 465 57 597 119 467 166 656 140 618 58 640 184 220 184 566 79 572 62 538 53 521 181 202 181 542 183 204 90 218 36 369 101 196 54 353 76 299 9 291 135 290 34 210 127 337 105 327 117 284 20 296 39 295 26 315 137 271 144 306 24 324 82 299 94 278 99 299 178 549 131 333 87 304 77 534 67 496 31 547 31 709
11062 1.744732110109688 0.89270146272109863 6.4251150561596004 195 108 55 0.67508601774670263 57 449 140 266 109 455 189 462 11 269 182 484 108 228 155 518 35 235 181 423
11061 1.3611580777652201 0.99577977638950455 6.2100073943385459 210 187 37 1.7961635183580433 57 599 35 571 109 587 140 623 58 645 53 525 184 568 183 416 90 544 54 459
11060 0.89955132454559827 -0.069057087888168264 6.4191494292399947 219 155 102 1.501871337354582 28 258 185 248 98 259 109 383 166 439 140 408 184 364 79 149 62 147 53 127 181 109
11059 0.59124989985422949 -1.0303771201850997 6.3733811507386227 228 220 164 0.59139934864715005 57 339 35 306 109 344 140 364 58 370 184 486 79 340 62 311 53 296 181 301 36 275 101 292 54 268 138 294 73 314
11053 2.9518652637537466 -0.44408426490791619 6.3497139063089501 202 156 33 0.9455163588302915 140 415 35 422 109 581 23 774 27 837 75 774 154 897 171 783 113 890 187 866 161 895 150 859 163 864 11 801 108 759 153 803 155 790 133 654 200 645 190 307 15 319 63 529 68 362 146 579 60 754 23 90 59 92 75 129 5 184 194 71 189 559 42 345 11 324 182 668 155 688 184 388 79 545 36 576 9 454 135 670 127 882 117 703 20 669 39 664 26 297 26 865 94 718 87 234 115 832 167 656 127 757 164 784 173 780
11049 0.80910711313407091 -3.0890103802820881 6.8309798198747798 0 0 0 1.644839976045767 157 1120 109 1018
11048 -0.87615817432858401 0.50595713710482393 7.5036755790679708 199 168 117 0.74119270919680258 35 1013 57 1048 109 1012
11045 2.3944772132532015 0.12582358233028637 6.3844090898362085 215 106 46 0.91441364787608104 35 957 57 977 109 961 181 923 36 801 164 1118
11043 1.940125562342959 -0.64007270544730799 6.5808377131485241 200 183 129 0.14585244007844872 153 997 109 905
11031 2.0702487763637945 -0.97844614301814314 6.4770096904946497 227 217 140 0.57937349443140207 58 564 158 677 109 664 62 329 53 319 181 498 183 327 90 336 101 81 101 317 54 293
11025 1.8524022927524193 1.0648400799951818 6.4287565010068644 212 180 132 0.058614575618664164 57 618 109 602
11022 2.5675882392191456 -0.4799118801940746 6.4233515736502618 187 69 22 0.071583274288313431 57 403 109 572
11020 -2.8413365526745835 -0.93350778656294175 12.692854744221554 208 155 68 1.2102239201859564 155 45 109 537
11018 1.4979178482904785 0.023764286745027525 5.8037375836332092 0 0 0 1.8739288768966256 2 471 171 608
11011 3.3860991413744483 0.29784199865730893 6.8352281416986784 214 157 66 1.0861050055949015 140 265 109 467 62 223
11002 -1.2359295370508161 -0.18422674139761266 7.2410710797989069 96 22 7 0.26731616747739123 57 351 109 354 184 512
11001 1.4191216947600862 -1.9267723422302931 6.7077563675685523 173 75 35 0.24114061249975718 35 313 153 588 109 349
10999 0.60933755282546043 -2.7977836057076244 6.8201978137843282 139 102 58 1.4733449998126951 22 10 109 314 35 0 13 61 198 83 123 122
10998 2.2105887402050435 1.3231676572816591 6.7513401386478069 212 135 23 0.92235380000262024 140 296 109 308 184 456 58 304 79 594 90 559 101 526
10996 2.5664783599955601 0.3067264054172516 6.5952564271214467 187 91 45 0.6776900188031163 140 247 109 283 184 574 166 476 181 554
10992 2.1049111848345681 1.2169839794841897 3.9330916662741888 211 175 66 0.24401119894765239 119 168 109 201
10990 2.2767917310030441 -1.1271330156287438 6.5406375081524395 201 123 54 1.0357695687529094 11 284 109 166 69 142 131 193
10981 1.3739572436739418 -2.1183256724608834 6.6752070823958878 193 101 52 0.275537667134586 57 320 109 55 26 649
10975 2.1682029638304092 -0.29946519532661875 6.5911459767486935 183 90 37 1.625171836054893 5 1143 200 1079 154 1064 180 1078 23 1095 63 1055 75 1075 171 1083 59 1065 104 1077 42 1084 194 1065 95 1087 27 1110 188 1091 113 1139 187 1109 161 1136 150 1118 190 1001 171 1110 130 1056 42 1103 194 1086 95 1105 80 1075 139 1082 189 1076 163 1110 15 1065 11 1033 182 1005 108 997 153 1049 155 1047 103 1067 133 1105 169 1113 61 1062 114 1136 30 1100 143 1103 28 1154 177 1166 185 1062 168 1034 37 1081 98 1084 64 1125 66 1038 172 1000 172 1018 88 1056 16 1027 85 1063 29 1031 72 1059 110 1071 102 1047 89 1044 2 1043 91 985 125 1051 97 1042 78 1026 179 975 126 987 8 1024 22 1039 60 1013 17 1046 38 1100 49 1013 6 986 43 956 147 931 119 969 70 1076 46 1102 71 1119 92 975 55 955 32 973 12 891 84 1031 1 980 45 999 156 1050 100 996 107 928 196 951 112 945 93 975 160 949 96 933 18 842 122 813 86 830 134 813 52 866 13 863 116 825 83 891 152 763 81 761 198 829 65 797 121 1034 106 909 21 763 198 783 199 981 44 977 7 895 132 950 41 862 124 783 50 812 176 801 138 819 73 822 111 781 74 713 129 760 197 744 148 722 76 1168 9 1104 9 1126 135 1134 34 1068 127 1168 105 1140 117 1094 20 1072 39 1103 26 1158 137 1125 149 1170 24 1154 82 1146 69 1123 94 1082 178 1123 87 1113 115 1104 167 1034 170 1104 141 1089 118 1064 77 1072 67 1041 31 1059 173 1040
10974 2.1103572489829476 -0.99213749745712965 6.4830809479970624 234 226 190 0.90880174208678222 63 338 130 141 75 444 23 435 171 482 154 454 5 134 59 447 104 125 42 392 194 150 27 512 180 157 188 80 113 569 187 521 161 558 10 94 190 52 80 76 139 68 189 531 163 570 15 70 11 512 182 481 153 452 155 486 103 97 133 113 169 113 146 147 175 107 192 99 177 57 64 49 98 631 3 115 22 125 200 146 38 434 6 410 43 558 147 554 119 384 140 132 35 144 109 161 52 340 13 333 198 328 121 387 106 358 21 310 199 378 44 84 7 85 132 353 41 316 124 310 162 313 186 58 142 43 47 43 120 45 40 52 76 114 9 428 135 126 34 71 127 486 105 152 117 161 20 441 39 137 137 113 144 117 149 121 24 136 82 138 69 152 99 142 131 196 87 161 115 142 167 158 141 152 118 137 173 150
10973 2.4175545957337037 -0.76918877404897157 6.5019298012958 190 88 35 1.3299718901785038 5 1107 200 1031 63 1001 23 1057 75 1040 171 1058 154 1063 130 995 59 1030 104 1034 42 1041 194 1024 95 1061 27 1088 180 1047 188 1043 113 1116 187 1083 161 1109 150 1092 10 997 190 956 80 1028 139 1023 189 1060 163 1093 15 915 11 1034 182 1006 108 1000 153 1048 155 1049 103 1016 133 995 133 996 200 1032 169 981 146 965 145 974 175 978 192 881 61 952 61 953 114 1026 114 1027 30 991 30 992 143 985 28 1050 177 1032 185 991 68 934 168 936 37 883 37 953 98 981 98 982 66 851 66 917 172 906 88 964 88 965 16 938 85 972 29 942 29 943 72 977 72 978 110 999 110 1000 102 975 89 968 2 991 2 992 91 817 91 886 125 882 125 946 78 967 78 968 3 954 126 874 8 872 8 873 22 987 22 988 17 1036 17 1037 60 1045 38 970 38 971 49 999 49 1000 70 842 157 1057 158 983 6 879 6 880 43 843 43 844 147 824 147 825 57 975 119 855 119 856 166 1027 58 1006 46 892 35 953 140 1012 158 1014 109 957 71 788 92 860 184 963 55 841 55 842 32 868 84 962 1 680 45 743 156 842 156 936 100 924 195 511 195 775 107 637 107 812 107 876 196 796 174 766 79 901 62 870 112 790 93 784 191 803 160 777 53 854 56 730 181 898 165 529 159 727 51 718 52 638 13 723 116 589 116 590 48 693 81 581 83 511 198 611 183 827 21 457 14 488 90 814 136 448 36 798 101 715 50 486 54 709 111 620 128 266 50 289 193 295 33 282 197 18 197 441 148 439 123 25 47 32 151 28 4 248 4 249 76 1115 9 1051 135 1089 34 1018 127 1134 105 1113 117 1061 20 1041 39 1075 26 1121 137 1082 144 1034 144 1035 149 1116 24 1110 82 1115 69 1089 94 1079 99 1051 178 1024 178 1025 131 1102 87 1081 87 1082 115 1099 167 1028 170 1069 170 1070 141 1042 164 1042 164 1043 118 1012 118 1013 77 1022 67 939 67 940 31 971 31 972 173 1034
10972 1.0302637574662925 -2.7530638655007404 6.7777838194593159 193 120 62 0.99799249965756931 169 689 145 694 175 521 68 818 37 661 97 507 23 734 63 621 75 732 130 782 171 547 5 609 59 715 104 724 42 710 95 721 180 558 188 388 10 656 190 718 139 624 15 733 103 725 133 620 133 764 146 802 145 807 192 669 61 572 114 634 30 580 143 574 28 643 185 35 168 712 146 314 76 631 154 10 9 599 135 590 127 380 117 361 187 96 39 559 26 366 137 751 144 391 149 617 24 604 82 603 69 606 94 11 161 108 99 405 178 381 87 355 167 7 170 340 67 549
10946 1.3861587946944407 -2.7907995032379023 6.5463682951379267 198 103 59 0.8586042727706058 60 546 157 545 59 324 163 295 103 16 192 31 200 2 61 35 168 52 66 242 88 7 16 21 29 6 72 8 110 7 91 128 125 190 78 1 179 30 17 3 70 224 158 2 180 557 113 708 150 596 154 347 163 731 11 607 108 573 153 550 155 569 57 479 46 255 109 319 184 285 13 604 21 430 36 2 135 582 127 616 20 557 94 350 99 37 87 12 115 599 167 554 141 12 164 6 164 558 118 352 77 7 67 20 31 6 173 8 173 567
10944 0.12152620406706244 -1.4210683078519635 6.3476218240611644 214 181 80 1.3319501697124745 113 1008 163 1063 11 880 182 855 108 901 153 895 60 808 98 485 16 475 85 468 104 1016 200 863 188 1015 10 906 188 958 80 946 15 903 133 896 169 883 146 866 146 993 27 1022 145 871 143 767 114 824 185 651 66 741 72 767 110 644 78 723 179 266 8 433 22 584 158 646 43 343 57 882 46 721 35 792 35 854 157 955 158 911 109 717 92 325 12 867 79 610 62 736 191 649 53 563 121 105 90 301 76 992 117 937 20 951 26 974 137 954 24 896 82 967 94 976 178 773 87 940 115 953 115 1001 167 944 164 915 118 900 77 856 31 778
10943 2.5919027451605521 0.083549267477453629 6.2898590035161481 211 138 110 0.88458784095743559 78 634 22 482 49 669 43 437 147 436 5 701 150 866 11 547 2 644 78 774 17 802 37 26 64 10 66 19 91 35 192 401 61 421 168 388 28 165 98 511 16 435 102 467 125 29 97 12 179 135 8 115 158 588 6 476 119 433 166 633 140 599 58 613 35 685 92 49 184 557 156 11 100 10 79 420 62 182 53 158 48 30 121 630 199 614 41 535 132 746 127 774 105 848 20 689 144 704 149 685 24 820 99 667 141 801 67 608
10940 -0.38943940814871092 -0.07667662486446615 7.3774506032962179 100 12 4 0.44734737848703243 23 437 59 652 75 644 171 627 104 467 194 649 95 400 27 394 10 491 3 426 145 462 98 310 89 481 126 282 60 171 70 538 157 443 6 531 43 459 147 225 57 374 46 572 23 436 59 653 75 645 171 626 104 468 42 467 194 648 95 399 63 275 27 393 180 184 188 298 113 383 187 388 161 391 10 490 189 342 163 377 15 262 10 254 11 364 182 324 108 323 155 382 146 452 145 461 177 563 68 483 98 311 89 480 3 427 126 283 22 484 60 172 70 537 6 530 43 460 147 224 46 573 35 344 109 128 71 572 71 573 184 369 32 492 32 493 45 710 156 703 100 666 195 642 196 662 174 651 112 267 112 268 112 641 160 657 96 475 18 430 122 462 134 431 181 359 51 465 51 466 52 456 52 457 13 442 13 443 116 438 116 439 152 189 152 190 81 381 198 575 65 594 106 263 106 264 21 550 21 551 14 439 41 206 41 207 101 364 124 403 124 404 50 447 176 438 54 151 111 441 74 223 162 428 162 429 123 485 47 550 151 458 151 556 120 181 120 182 25 183 25 184 25 444 40 385 40 386 76 281 5 225 9 251 34 268 127 472 117 478 135 248 20 460 26 159 39 205 105 227 82 184 69 195 94 133 131 485 115 475 167 440 167 441 170 652
10939 1.8062756306268135 -1.9413041757272418 6.6007675119275024 229 219 140 0.82876401148731582 63 1012 171 1075 130 1021 59 1056 194 1048 180 1021 113 1106 190 967 80 1039 139 1033 103 1007 169 1069 146 1033 145 1038 175 1059 72 966 110 987 22 970 78 951 38 1012 49 984 158 912 43 895 147 870 57 894 166 919 140 916 35 868 58 869 113 1107 161 1097 189 1048 163 1083 11 1022 182 995 108 987 155 1024 68 1070 66 997 109 873 184 856 79 768 62 742 96 953 53 723 18 917 86 930 134 885 181 772 183 742 14 851 90 737 36 618 183 673 101 699 54 504 54 642 127 1118 20 1015 39 1050 137 1072 144 1018 141 965
10936 1.5404234635213705 0.69047002717569161 6.313713551411845 199 93 42 1.2055782746754848 5 731 23 351 63 610 75 55 171 359 59 364 104 360 42 360 194 51 95 358 27 630 180 694 188 703 187 708 150 851 154 888 10 356 190 372 80 475 139 462 15 81 182 620 108 611 153 787 11 774 155 762 103 502 133 260 192 246 200 535 30 226 29 293 72 536 78 236 17 272 49 295 157 775 166 249 140 246 58 474 60 284 157 276 57 230 109 232 184 215 79 437 62 415 53 197 181 185 90 536 101 183 54 349 76 559 9 716 135 539 34 655 127 775 127 891 105 738 117 739 20 701 39 694 26 874 137 507 144 565 149 537 24 547 82 741 82 848 69 846 94 832 99 295 178 543 131 858 87 834 115 288 115 842 167 279 167 784 170 690 141 322 164 528 118 520 31 336 173 520
10935 0.81895577364650585 -0.17402044266153799 6.3855815985242019 230 221 143 0.8156013810915036 5 1052 200 997 63 975 23 998 75 981 171 980 154 994 130 944 104 984 194 976 95 977 27 1005 180 987 188 1023 187 1000 161 1025 150 1024 10 948 80 998 139 1002 189 968 163 1005 15 953 11 952 182 930 108 912 153 981 155 960 103 982 133 1031 169 1003 146 966 145 979 175 988 114 1055 30 1026 28 1085 177 1077 185 1027 68 1010 37 994 98 1015 64 1044 66 953 172 950 16 975 85 1007 29 972 72 1006 110 1025 102 995 89 985 2 1007 91 931 125 983 97 960 78 982 179 923 126 953 22 996 60 970 17 997 38 1047 49 1018 157 981 158 945 6 952 43 926 147 897 57 917 119 872 166 947 140 942 58 968 46 1064 35 883 43 860 147 840 109 891 71 1077 55 930 12 841 84 994 84 1055 156 971 79 868 62 772 79 796 191 971 96 874 53 755 18 760 122 750 86 848 134 735 181 797 83 850 81 592 183 710 14 739 90 761 132 885 36 558 101 659 176 623 54 598 73 782 128 669 76 1070 9 1015 135 1041 127 1077 105 1057 117 1009 20 982 39 1021 137 1037 144 1066 149 1076 24 1067 82 1060 69 1028 94 1009 99 1025 178 1042 131 1048 87 1027 115 1042 167 983 170 1020 141 1012 164 1008 118 977 77 993 67 971 31 995 173 996
10934 1.6237239006563104 1.224631578418149 6.1487984406019756 217 161 123 1.7159864921700105 5 754 23 739 75 736 154 826 59 720 104 730 194 719 113 684 187 851 161 865 150 871 139 778 189 633 163 795 15 682 11 781 182 760 108 735 153 799 155 772 103 787 64 757 125 737 37 567 66 676 66 539 97 544 46 20 61 514 16 312 59 2 75 9 171 12 27 51 113 197 187 292 154 305 10 40 190 63 189 165 163 153 15 58 182 227 108 207 155 287 68 5 64 399 179 285 70 27 71 18 55 264 135 871 117 861 26 608 26 890 69 855 94 844 131 870 115 861 167 799 170 825 173 811
10933 2.7987288033339035 -0.53555335819821814 6.3404837968676375 160 128 30 0.67065522915153586 113 603 153 671 189 822 11 697 163 862 182 775 108 758 155 788 187 737 23 616 171 648 194 611 75 781 130 703 5 678 200 639 63 531 59 749 104 593 42 736 154 812 95 782 27 836 188 765 187 863 161 893 150 852 10 532 10 682 80 575 139 568 153 797 103 603 169 575 175 559 192 662 61 370 30 587 143 591 28 453 177 9 185 602 168 547 98 635 66 16 172 546 85 389 29 588 72 636 110 438 102 427 89 612 2 171 125 557 97 534 78 415 78 849 15 325 3 559 68 367 179 511 126 84 8 542 22 618 60 637 17 155 38 455 49 462 157 635 158 411 6 422 57 568 119 115 166 603 140 404 58 589 46 380 35 563 89 165 43 143 109 687 32 68 12 503 45 342 97 664 79 541 62 352 191 321 53 344 86 320 134 26 181 524 121 390 36 137 101 332 138 79 76 685 76 835 9 652 135 664 34 558 42 570 127 747 105 831 20 792 39 656 26 556 137 620 149 653 24 654 82 703 69 512 117 505 99 638 178 662 131 709 87 487 133 107 115 212 115 699 167 649 170 642 141 653 164 658 118 637 77 443 67 393 31 633 173 470 173 649
10931 0.91669732023649642 -0.34435465814286936 6.3796082632525861 209 118 54 1.3012668425825811 61 270 168 253 37 235 98 238 66 238 172 471 16 245 29 483 110 519 91 241 125 257 179 260 57 371 5 918 200 889 154 867 161 925 189 853 11 831 182 809 108 799 153 844 155 834 192 721 61 767 168 747 72 882 2 851 78 767 22 851 60 831 17 792 108 702 38 820 49 794 43 784 147 758 166 725 140 567 166 601 58 579 35 519 109 528 92 279 184 642 55 221 107 244 62 500 53 486 56 201 181 494 121 808 183 508 90 494 199 622 44 788 7 568 132 620 41 527 36 448 101 462 54 421 73 344 138 105 135 917 127 1012 105 935 39 892 82 920 69 895 131 921 87 891 115 900 167 840 170 888 141 887 164 884 164 938 118 862 77 877 67 764 173 863
10929 -1.5217513981704476 -0.15618914670531595 7.3289079216022204 112 33 13 1.5014143111624627 154 77 150 371 190 749 139 733 23 199 75 432 104 542 171 425 42 308 95 90 27 13 188 577 187 354 169 804 22 472 147 221 75 428 89 235 76 571 20 435 167 111
10928 -0.52487385222848582 0.92314150658598249 7.2257391480806863 210 182 133 1.0357212238703621 63 680 104 642 161 624 150 681 23 395 130 395 171 358 59 411 42 434 95 339 180 502 188 752 113 18 75 84 10 219 190 647 139 554 23 867 63 803 75 858 171 855 130 817 5 861 42 877 95 840 27 871 180 885 113 775 187 759 161 781 154 869 150 910 10 831 190 818 80 887 139 820 189 830 163 362 163 867 15 821 11 816 182 792 108 518 153 748 155 820 103 565 133 750 133 854 169 779 146 598 146 599 145 432 145 845 175 415 175 843 114 602 30 552 143 549 28 628 177 332 68 177 98 360 98 836 64 546 85 691 102 873 89 784 2 882 3 388 3 389 3 705 126 329 8 656 8 769 22 883 60 854 157 860 158 803 6 682 185 716 43 737 147 792 57 771 119 764 46 543 46 544 46 837 35 652 68 178 64 547 109 669 71 306 32 506 84 554 84 555 195 475 196 785 174 509 160 499 96 174 18 155 18 679 122 407 134 384 165 492 159 609 51 600 51 828 52 481 116 445 198 452 198 816 106 653 21 427 41 703 101 514 50 613 74 180 162 441 47 655 120 639 76 788 76 972 9 738 9 912 135 555 135 946 34 706 127 508 127 863 105 308 105 960 117 524 20 801 39 815 26 940 137 731 144 755 144 946 149 374 149 976 24 725 24 953 82 938 69 710 69 917 94 662 94 796 178 842 131 930 87 505 115 914 167 857 170 921
10924 2.120762090682371 -0.65005667307538539 6.4712364020062658 196 89 38 1.0370549865500678 200 929 103 902 133 952 89 895 5 1035 200 981 63 940 130 939 194 970 10 926 139 977 114 1029 30 1001 143 995 28 1058 185 998 98 991 172 915 88 967 85 982 29 946 72 985 110 1009 102 983 89 972 78 970 179 889 126 937 8 946 22 928 49 1004 158 944 43 848 166 884 140 883 58 899 5 1034 200 982 63 939 130 938 194 969 10 925 190 896 80 968 139 976 15 918 103 901 133 951 169 915 192 891 61 961 114 1028 30 1000 143 994 28 1057 177 1039 185 997 168 944 37 960 98 990 64 1015 66 925 172 914 88 966 16 946 85 983 29 945 72 986 110 1008 102 982 125 952 97 934 3 889 179 890 126 936 8 945 17 983 49 1005 70 1018 158 943 147 890 166 885 166 943 140 882 58 898 92 934 184 741 55 906 55 907 32 925 12 837 1 938 84 1029 45 998 156 998 100 993 195 946 107 881 196 948 174 914 79 728 79 729 184 740 62 768 62 769 112 942 93 926 160 947 96 862 53 678 53 679 122 814 86 834 134 728 56 881 165 926 159 846 51 838 52 862 13 859 116 823 48 832 83 823 198 826 81 582 152 587 65 843 121 1000 183 622 183 623 21 797 14 788 90 756 199 950 7 865 132 920 41 811 136 792 124 809 50 865 176 612 54 526 54 527 138 770 73 773 111 780 128 713 74 710 186 784 76 1049 9 993 9 994 135 1025 34 961 34 962 105 1043 105 1044 20 976 20 977 39 1013 39 1014 137 1008 144 977 144 978 149 1051 24 982 82 1057 82 1058 69 1024 69 1025 178 1027 178 1028 74 569 170 1009 170 1010 141 987 141 988 118 957 118 958 77 974 77 975 67 893 31 931 31 932
10922 1.7762173257363012 -1.6419559340834073 6.5401031932557441 212 150 88 0.95570745844895977 146 196 175 161 68 170 190 776 15 699 37 731 194 779 169 761 200 409 192 523 61 376 114 409 30 377 143 393 146 461 145 192 175 168 28 436 177 631 185 405 168 382 98 435 64 605 66 697 172 375 88 396 16 392 85 393 29 383 72 389 110 70 102 64 89 63 2 64 91 367 125 742 97 580 78 54 3 443 179 359 126 364 8 346 22 60 60 84 17 53 38 61 49 60 70 433 157 88 158 71 6 46 43 41 57 87 119 36 166 61 140 79 58 83 46 151 35 93 71 156 92 395 184 81 55 57 32 54 1 400 84 394 45 407 156 365 100 356 195 346 107 83 196 60 174 64 79 51 112 365 93 111 160 56 53 61 165 362 159 37 51 40 52 59 13 40 116 46 48 69 65 60 121 33 136 46 129 508 197 477 148 475 19 297 4 49 121 38 44 49 105 658 39 382 137 607 144 651 149 424 24 431 82 417 69 422 178 79 131 428 87 410 115 73 167 399 170 380 141 411 164 374 118 399 77 399 67 371 31 440 173 399
10921 1.4739958998604332 -2.2517805510808993 6.517213547342557 216 194 39 0.54097852641101007 200 48 61 65 114 39 169 231 30 35 37 215 64 134 66 213 172 74 88 43 29 31 72 44 110 38 89 32 97 196 78 19 8 29 17 345 38 26 49 23 70 170 23 708 63 581 75 718 171 714 130 651 59 699 104 688 42 672 194 692 95 707 27 731 180 579 188 609 113 709 187 638 150 623 10 625 190 589 80 630 139 598 163 722 15 597 146 671 145 487 175 453 68 477 3 486 46 200 71 210 12 188 84 126 122 166 152 159 176 153 9 612 34 568 127 644 117 618 20 577 26 645 94 607 87 375 141 380 192 340 164 579 118 373 77 368 67 349 31 37 173 584
10920 1.4424687247389469 -1.866025250795242 6.7579336611267395 209 126 77 0.29550016140469521 15 150 114 100 30 94 143 102 28 101 177 143 185 84 168 153 37 460 98 70 64 446 169 212 66 444 172 152 88 94 16 118 85 98 29 76 110 76 102 58 91 405 125 461 97 448 179 152 126 71 8 101 38 64 70 458 6 47 119 41 46 496 145 228 175 197 92 421 55 388 32 347 1 593 84 450 45 450 156 408 100 394 195 381 196 395 174 398 112 405 93 616 160 398 56 556 165 419 159 349 51 352 52 74 13 75 116 343 48 354 198 78 65 124 121 46 106 50 44 63 132 43 193 109 31 85
10917 0.38990035126267392 -1.7297804682709412 6.3978524963183734 109 25 12 0.18564948700449746 57 301 35 277 109 320
10916 2.7446006057464611 -1.1007437006844618 6.5014235180269218 171 98 20 1.7286458415168413 75 191 153 476 23 883 59 848 95 894 27 932 187 973 11 995 108 838 155 999 35 663 157 837 57 388 109 678 181 358 26 942 94 894 131 983 87 889
10913 1.7996672777345917 1.1724663363769905 6.208478636740546 200 114 55 0.82528160632303305 157 534 57 458 35 452 158 268 166 282 140 284 58 494 184 256 79 238 62 230 53 225 181 238 36 212 39 321 178 344 167 552 164 546 118 532 77 546 173 551
10912 0.94319050679918093 -0.67737535026317275 6.4535556023825533 188 89 45 1.3355209083653563 154 1087 113 1127 161 1124 189 1069 163 1105 11 1045 182 1015 108 1009 153 1059 155 1061 35 951 5 1110 200 1044 63 1024 23 1067 75 1043 171 1050 130 1003 59 1040 104 1052 42 1060 194 1036 95 1050 27 1075 180 1039 188 1057 187 1065 150 1071 10 1020 190 979 80 1051 139 1045 15 1016 103 1030 133 1019 169 1009 146 1013 145 1022 175 998 192 956 61 1033 114 1041 177 1062 68 1018 37 992 64 1040 66 952 72 999 91 920 125 980 97 963 78 1020 3 1003 60 1002 17 1041 49 1008 157 1014 158 980 140 975 109 955 76 1129 9 1063 135 1098 34 1035 127 1127 105 1110 117 1053 20 1035 39 1073 26 1113 137 1093 144 1117 149 1131 24 1120 82 1106 69 1081 94 1067 99 1062 131 1094 87 1074 115 1091 167 1018 170 1066 141 1056 164 1052 118 1028 77 1038 67 1010 31 989 173 1028
10910 2.4154258299412854 -0.35847863166487409 6.3615375251240263 216 154 94 0.41794474191875142 60 223 157 219 158 168 57 190 58 184 35 187 5 484 154 502 182 273 153 264 200 220 155 314 103 438 192 391 61 409 114 441 30 125 143 423 28 477 177 33 185 439 168 569 98 494 64 362 172 379 88 447 16 422 85 423 29 436 72 468 110 472 102 438 179 377 126 122 8 100 38 488 6 448 43 408 147 159 119 415 92 374 184 165 55 84 32 107 45 20 84 30 156 21 100 14 195 17 196 31 174 32 160 13 181 143 159 79 51 62 52 112 13 94 116 47 198 76 106 125 44 132 7 135 132 130 127 534 105 527 39 462 137 415 144 480 149 471 24 488 82 506 69 515 94 532 178 473 131 523 87 488 115 508 167 476 170 444 141 476 164 461 118 468 77 464 67 412 31 484
10909 1.0437469028645086 0.42750522516005629 6.2958011266830818 120 30 7 1.7339280906752634 163 117 11 178 182 149 108 122 140 439 161 830 171 749 58 447 35 169 182 729 155 615 156 794 107 590 62 391 181 137 52 206 121 676 199 766 44 521 7 592 132 640
10907 1.9759140115564218 -1.3864199562002009 6.5711022823430687 210 127 63 1.830436771148406 22 92 57 110 35 128 5 425 154 174 150 455 182 451 153 168 155 473 133 420 145 439 169 430 146 181 175 407 68 143 3 160 70 103 158 91 60 120 109 125 1 114 48 67 39 392 26 482 24 107 179 78 82 103 69 119 94 166 131 150 131 153 87 121 167 112 167 114 170 394 164 104 99 118
10906 0.33272842443763195 -0.10758011165954282 7.2768430728065958 205 171 86 1.273014042661714 153 1131 35 1030 109 1025
10905 3.7805582001564533 -0.22042947212817504 6.2445032938616114 0 0 0 3.4653745762449502 16 1083 61 1128
10903 -0.24686185877434791 0.31733642365373432 7.3601190457109666 202 172 122 1.3992051609633553 163 1165 35 1014 181 963 36 846
10902 0.69232058082075465 -0.66010981379670586 6.4454490108650804 197 119 41 1.3741620446864853 57 1039 35 1012 109 1011 181 961
10900 0.74798426891974101 0.1076324534344567 6.1865829416755931 216 197 107 0.91327009570915174 57 1003 35 986 109 988 184 983
10897 2.0878792930666767 1.3212106703867457 6.8834806002865294 216 144 23 1.4525673876309997 35 966 109 997 35 993 184 1011 181 959 36 850
10895 0.37506452165089205 1.1917131461904604 6.9353969762200993 196 159 60 1.1238529624736728 57 957 35 935 109 940
10894 0.4222719018529944 -1.479453066050012 6.4268001791084499 204 188 92 0.54649273306949986 57 938 60 1032 35 917 109 920
10890 1.4827625984008299 0.72137896893581921 6.3156034671703809 228 213 118 1.4935853871671789 154 949 35 842 109 849 173 886
10889 2.3455161296847034 -0.20019882034403327 6.3809764195511427 192 98 29 0.13140165123839273 58 906 35 839 109 844 79 802
10888 2.6559785091557448 -0.49858767250617003 6.3269744431235404 213 185 75 0.2147367495309285 155 936 35 837 109 841
10886 1.8276585647680081 -1.3075184955530765 6.5243300030903582 214 192 35 0.13473315383987991 57 906 35 819 109 820
10885 0.312017890512927 -0.99698895629595696 6.3019644522074154 196 163 58 0.63527402327972682 57 825 182 918 35 802 109 805 181 764 36 612
10884 0.467377058359776 -1.3418998109930762 6.3647921324335917 230 222 176 0.12698046487629613 57 821 35 798 109 803
10883 3.3780865614371587 0.24874683323721966 6.8889900970660936 214 158 63 0.42892890601908923 57 810 35 787 109 713
10881 1.7262678107544902 0.93270621440202894 6.3587107947703325 219 145 87 0.57949499994155251 58 650 35 778 184 579 62 543 53 530 181 422
10879 2.5030667131398894 -0.8557711601168938 6.3571862092339941 214 175 57 0.032720728634458018 57 859 35 749
10876 0.69698580096604912 -2.3675750911749369 6.8930608365045094 200 170 119 0.75972123446281614 57 727 35 708
10875 0.72992631905707106 -2.3246027329238013 6.835252207085925 200 170 119 0.94560338770671493 57 726 158 500 35 707 115 758 167 708 39 723
10874 1.6289862125264676 1.4938548770325877 6.568951741317826 200 163 70 1.8728838010243352 58 857 35 698 109 792 79 685 62 653 53 633 181 671 54 632
10873 1.6750600723919318 0.98149027121765664 6.2512220665212324 201 107 45 0.11064517764665356 57 709 35 686 109 702
10870 -0.65450421208459997 0.33523114515648134 7.3298828282636341 199 168 117 0.29631233998621709 57 761 35 646 109 750 184 750
10867 1.9953730381453021 -2.6444425937845129 6.575679531921752 161 124 75 1.1160890038888223 57 731 35 619
10866 1.775094017906562 -2.6604348267308913 6.6519892456762815 174 146 51 0.8757651413984805 60 699 35 617 109 623
10865 0.10860730750089233 -1.6589929058711481 6.4825586632282937 125 56 24 1.1653779431263516 57 632 35 599 109 614 184 470 166 328 181 276
10864 1.9035856109887166 1.5017800786569335 6.8550774659588489 212 153 40 1.3050765963798201 57 627 35 593 184 697
10862 1.5972017211365606 0.77440846820519826 6.1893254971332636 214 128 63 0.152393434971794 57 433 35 569 109 584
10859 2.7846622947195474 -1.0604622302524493 6.5220317721461765 185 101 20 0.29569381534342959 161 346 35 545 109 550
10858 -0.20863463229713822 0.63067145731109042 7.307187466933585 144 119 39 0.5845883398283499 154 635 35 532 109 392
10857 1.7839398569731237 -1.0217277424931026 6.7225217628479568 177 176 133 0.030858982166648563 57 669 35 525
10855 1.5078186680898946 -0.8763012337325663 6.5387514586665247 203 131 29 0.38697573342430125 57 664 35 521
10854 1.0433127004711664 -0.46582438605998872 6.4659256177706634 188 91 44 0.30859239884939904 140 398 35 520 109 529
10853 0.93618836026603902 -0.79998130103312415 6.4865520756701613 198 94 42 0.088042812141665205 57 359 35 511 109 518
10852 0.90182865696532089 -0.83116178691591558 6.564890736136725 198 94 42 0.42092378541557529 57 358 35 510 109 519 181 329
10851 1.1766474374988944 -1.0582791191223082 6.5320707837102772 200 133 26 0.42461263238333607 57 655 35 507 184 339
10848 0.27753793607528282 -1.1608905311313118 6.392969904938604 184 135 48 0.46566893168698797 163 776 35 481 181 291
10847 0.42362830912781713 -1.6797808545959469 6.3884755268573414 199 100 55 0.47070224061566851 57 482 35 470 109 479 184 299 62 32 181 278 53 267
10846 1.6519631563534096 -3.0832389352782212 6.7809617988503588 0 0 0 0.13850563103021726 57 629 35 469
10845 1.6220119837142044 1.5520132394027757 6.8296761637862851 202 172 80 0.52865727655678285 57 284 35 461 181 263 53 254 36 411
10844 1.8074930420515789 1.2347996947228219 6.6141271737339355 204 122 65 2.2145767444744684 35 456 109 294 62 244 90 423 101 406
10843 1.7283464513774489 1.3419324258746084 6.2170454497355196 198 77 37 0.34918575693685622 57 463 35 455
10842 1.5699516522677979 0.90516759803653901 6.2184195699337259 208 111 42 0.37356094457969613 140 256 35 428 109 250 184 223 79 219 62 212
10840 1.5148563093709135 0.59781968028598187 6.3365759812089308 205 104 53 0.2338237835296671 60 275 35 408 109 426 184 209
10839 0.1405149085842497 1.1253088751412956 7.1278802206885494 244 242 239 0.62122984190276875 57 573 35 402 109 208
10838 0.12644676742652364 1.124281275216646 7.156828013721956 244 242 239 0.73752265415734508 57 574 35 401
10837 0.092919779242497308 0.61065039495611606 7.3253178123673433 157 116 41 0.25208401930486185 182 355 35 384 36 481
10835 1.2854403872704909 -0.096838082125986102 6.5653341309795543 197 135 56 0.45115249452329981 182 431 35 373
10834 1.8013661561188936 -0.89960237827158751 6.9949811649452727 192 167 111 0.44316861601258689 182 209 35 368
10833 2.1521640385497687 -0.88913756871268823 6.4612994893996198 189 93 30 0.85158940836805419 58 140 35 366 184 357 62 336 181 350 90 342 36 102 101 319 73 88
10832 2.2499344869107349 -1.0373364810957064 6.4991330661031803 209 136 66 0.24280183291992211 57 382 60 440 35 365 109 386 184 131 79 107 62 107 53 99 181 104
10831 1.0160452257507893 -0.54390862849204924 6.481424569828425 165 56 23 0.29109462445056894 57 123 35 346 109 376 36 311
10828 0.43133513523034195 -0.70636507472912724 6.2547556881591069 196 174 63 0.15555438680716005 155 389 35 314
10823 1.6193687715086216 -2.3913968296235546 6.7205587668472608 152 46 14 0.30974565644746826 57 47 35 300 109 340
10820 0.31176768098080293 -2.0931819875122732 6.8784284928745674 159 130 85 0.22140776002330811 155 550 35 278
10817 1.656967329819327 1.1661171877636234 6.1586233857066803 216 153 93 0.078318273878461728 57 266 35 240 109 278
10816 1.5765007155476656 1.1129239652513705 6.1409380193889227 226 180 122 0.10226465491142478 57 257 35 233 109 267
